# .PCD v0.7 - Point Cloud Data file format
VERSION 0.7
FIELDS x y z intensity
SIZE 4 4 4 4
TYPE F F F F
COUNT 1 1 1 1
WIDTH 1169
HEIGHT 1
VIEWPOINT 0 0 0 1 0 0 0
POINTS 1169
DATA ascii
-3.9709673 7.4808979 -2.0067878 62.040001
-4.4044847 8.2976007 -1.9967839 62.040001
-4.9659472 9.3553381 -1.9955692 62.040001
-5.713028 10.844895 -2.0138609 62.220001
-6.7311287 12.777531 -2.0297005 62.220001
-8.2557726 15.671724 -2.0714316 62.220001
-10.355093 19.656811 -2.0727906 62.220001
-12.950508 24.58362 -1.9429969 62.220001
-2.1331742 4.0493507 -2.0377505 62.220001
-14.196218 26.948318 -1.4204218 62.220001
-2.2673221 4.3039999 -2.0319498 62.220001
-2.4251726 4.6036439 -2.031846 62.220001
-2.5954096 4.9268003 -2.0268114 62.220001
-22.698399 43.087795 1.1306907 62.220001
-2.7923741 5.300693 -2.0244198 62.220001
-23.206896 44.053059 2.3219974 62.220001
-3.0094404 5.7127442 -2.0148249 62.220001
-3.2777345 6.2220402 -2.0165629 62.220001
-3.5755095 6.7872992 -2.0082841 62.220001
-3.9456317 7.4898925 -2.0058656 62.220001
-4.3774838 8.3096666 -1.9963681 62.220001
-4.9347 9.3674154 -1.9948287 62.220001
-5.675272 10.855794 -2.0125642 62.400002
-6.6836128 12.784573 -2.0274737 62.400002
-8.1917734 15.669416 -2.0677147 62.400002
-10.276682 19.657478 -2.0694466 62.400002
-12.864894 24.608273 -1.9417412 62.400002
-2.1238284 4.0625091 -2.0410044 62.400002
-14.403972 27.552258 -1.4498626 62.400002
-2.2537894 4.3111014 -2.0319498 62.400002
-2.4098349 4.6095886 -2.0311186 62.400002
-2.5781775 4.9315987 -2.0254433 62.400002
-22.965881 43.92968 1.150884 62.400002
-2.7748301 5.3077602 -2.0237796 62.400002
-2.9888248 5.7170944 -2.0130374 62.400002
-3.2563899 6.2288995 -2.0154603 62.400002
-3.5532725 6.7967834 -2.0077775 62.400002
-3.9211805 7.5005264 -2.0054045 62.400002
-4.3459187 8.3129759 -1.9938731 62.400002
-4.8997836 9.3724213 -1.9926069 62.400002
-5.6404638 10.858356 -2.0102944 62.549999
-6.6464682 12.794996 -2.0263603 62.549999
-8.1397343 15.669655 -2.0649271 62.549999
-10.225183 19.684317 -2.0694466 62.549999
-12.788469 24.618851 -1.9399276 62.549999
-2.111501 4.0648122 -2.0393775 62.549999
-2.2441967 4.3202624 -2.0334914 62.549999
-2.3977587 4.6158819 -2.0311186 62.549999
-2.5643914 4.9366636 -2.0247593 62.549999
-22.4517 43.221359 1.1307834 62.549999
-2.7609248 5.3150067 -2.0237796 62.549999
-23.821238 45.857834 2.4098539 62.549999
-2.9756074 5.7282882 -2.0142291 62.549999
-3.2374129 6.232285 -2.0138066 62.549999
-3.5390341 6.8129306 -2.0098035 62.549999
-3.9015307 7.5107665 -2.0054045 62.549999
-4.3241405 8.3243246 -1.9938731 62.549999
-4.8752298 9.3852167 -1.9926069 62.549999
-5.6035213 10.875246 -2.0099702 62.740002
-6.5985589 12.806403 -2.0246904 62.740002
-8.0804482 15.682434 -2.0630686 62.740002
-10.171709 19.741129 -2.0718617 62.740002
-12.70219 24.652256 -1.93923 62.740002
-2.0988467 4.0734162 -2.0401909 62.740002
-2.2298579 4.3276811 -2.0334914 62.740002
-2.3841453 4.62712 -2.0325737 62.740002
-21.865393 42.436085 0 62.740002
-2.5497284 4.9484816 -2.0261273 62.740002
-22.405325 43.483978 1.1357042 62.740002
-2.7424166 5.3224487 -2.0231395 62.740002
-23.238956 45.101883 2.3660655 62.740002
-2.9539721 5.7330327 -2.0124419 62.740002
-3.2184892 6.2464046 -2.014909 62.740002
-3.5128775 6.8177495 -2.0077775 62.740002
-3.8783855 7.527123 -2.0063267 62.740002
-4.2938242 8.3334007 -1.9926256 62.740002
-4.8404799 9.3943434 -1.9911256 62.740002
-5.5668368 10.878553 -2.0077004 62.900002
-6.5546513 12.808911 -2.0221851 62.900002
-8.0330029 15.697865 -2.0621395 62.900002
-10.102027 19.741093 -2.0688891 62.900002
-12.626937 24.6752 -1.9382534 62.900002
-2.0866311 4.0776348 -2.0393775 62.900002
-2.2169235 4.3322482 -2.0327206 62.900002
-2.3695173 4.6304426 -2.0311186 62.900002
-21.93722 42.869087 0 62.900002
-2.5350435 4.9539094 -2.0254433 62.900002
-22.411325 43.79557 1.1422032 62.900002
-2.729269 5.3334594 -2.0244198 62.900002
-23.03738 45.01899 2.3583326 62.900002
-2.9414299 5.7480578 -2.0148249 62.900002
-3.2010334 6.2553678 -2.014909 62.900002
-3.4920621 6.8240876 -2.0067644 62.900002
-3.8564641 7.5361919 -2.0058656 62.900002
-4.2732096 8.350584 -1.9938731 62.900002
-4.8115406 9.4025755 -1.9900147 62.900002
-5.5336413 10.893263 -2.0073762 63.07
-6.5121326 12.819474 -2.0207934 63.07
-7.9836922 15.716317 -2.0614426 63.07
-10.027176 19.739021 -2.0655451 63.07
-12.54644 24.698324 -1.9371372 63.07
-2.075351 4.0854368 -2.0401909 63.07
-2.2057312 4.3420973 -2.0342624 63.07
-2.3574555 4.6407747 -2.0325737 63.07
-2.5211849 4.9630847 -2.0261273 63.07
-22.270416 43.840481 1.1416461 63.07
-2.7099998 5.3347769 -2.0218589 63.07
-22.985138 45.247448 2.3667176 63.07
-2.9226327 5.7533555 -2.0136333 63.07
-3.1824594 6.2648377 -2.014909 63.07
-3.4709229 6.8326941 -2.006258 63.07
-3.8340869 7.5476012 -2.0058656 63.07
-4.2466421 8.3597374 -1.9930415 63.07
-4.780951 9.4115534 -1.9889038 63.07
-5.4958386 10.903544 -2.0060792 63.25
-6.4736099 12.843407 -2.0213501 63.25
-7.9271259 15.72713 -2.0595841 63.25
-9.9507742 19.741974 -2.0625725 63.25
-12.456214 24.712675 -1.9351841 63.25
-2.0608611 4.0886736 -2.038564 63.25
-2.1895874 4.3440619 -2.0319498 63.25
-2.3428645 4.6481581 -2.0325737 63.25
-34.187675 67.82711 0 63.25
-2.5055807 4.9709806 -2.0261273 63.25
-21.433313 42.522915 1.1055765 63.25
-2.6949325 5.3466482 -2.0231395 63.25
-22.933697 45.499622 2.3761275 63.25
-2.9028249 5.759099 -2.0124419 63.25
-3.1618967 6.273088 -2.0143578 63.25
-3.4503112 6.8452921 -2.0067644 63.25
-3.8077288 7.5543952 -2.0044823 63.25
-4.2203584 8.3730373 -1.9930415 63.25
-4.7495914 9.4230165 -1.9881632 63.25
-5.4599309 10.912743 -2.0047822 63.419998
-6.4212952 12.834218 -2.0168965 63.419998
-7.8706508 15.731039 -2.0570288 63.419998
-9.8778982 19.742916 -2.0595999 63.419998
-12.373015 24.729898 -1.9336494 63.419998
-2.0503559 4.0980382 -2.0401909 63.419998
-2.1775143 4.3521895 -2.0327206 63.419998
-21.286474 42.545193 -1.1045089 63.419998
-2.3282294 4.6534228 -2.031846 63.419998
-2.4891386 4.9750314 -2.0247593 63.419998
-22.691973 45.354359 1.1774372 63.419998
-2.6790569 5.3546205 -2.0231395 63.419998
-22.78787 45.546028 2.3750095 63.419998
-2.8848703 5.7659793 -2.0118461 63.419998
-3.1441305 6.2841616 -2.014909 63.419998
-3.4282544 6.8520389 -2.0057514 63.419998
-3.7852976 7.56566 -2.0044823 63.419998
-4.1937456 8.3820238 -1.9922098 63.419998
-4.7163353 9.4265213 -1.9859414 63.419998
-5.4247432 10.928074 -2.004458 63.599998
-6.3765407 12.845458 -2.0155048 63.599998
-7.813242 15.739675 -2.0549381 63.599998
-9.8096275 19.761366 -2.0582995 63.599998
-12.295263 24.768648 -1.9336494 63.599998
-2.036659 4.1028228 -2.0393775 63.599998
-2.1638308 4.3590088 -2.0327206 63.599998
-28.448984 57.310108 -1.4854908 63.599998
-2.3135986 4.6607141 -2.031846 63.599998
-2.472661 4.9811435 -2.0240753 63.599998
-2.6613791 5.3613133 -2.0224991 63.599998
-25.491688 51.352673 2.6736093 63.599998
-2.8692884 5.7801442 -2.0136333 63.599998
-3.1218083 6.2888417 -2.0132554 63.599998
-3.4075713 6.8645082 -2.006258 63.599998
-3.764972 7.584487 -2.0063267 63.599998
-4.1673923 8.3951569 -1.9922098 63.599998
-4.6832023 9.4342489 -1.9844601 63.599998
-5.3844447 10.928188 -2.0015399 63.77
-6.3419008 12.871428 -2.0166183 63.77
-7.7577276 15.744968 -2.0526152 63.77
-9.7315884 19.751085 -2.0542123 63.77
-12.209374 24.779964 -1.9316963 63.77
-2.0244768 4.1088476 -2.0393775 63.77
-2.1525192 4.368721 -2.0342624 63.77
-28.26026 57.356602 -1.484516 63.77
-2.2989366 4.6658874 -2.0311186 63.77
-2.4587016 4.9901438 -2.0247593 63.77
-25.007313 50.754467 1.3136381 63.77
-2.6462975 5.3708858 -2.0231395 63.77
-25.497265 51.748867 2.6902862 63.77
-2.8521259 5.7886319 -2.0136333 63.77
-3.106534 6.304975 -2.0154603 63.77
-3.3846235 6.8693814 -2.0047386 63.77
-3.7398715 7.5903873 -2.0049434 63.77
-4.1450591 8.4127493 -1.9934573 63.77
-4.6560583 9.4498663 -1.9848305 63.77
-5.3495698 10.934319 -1.9999187 63.93
-6.3024507 12.881971 -2.0155048 63.93
-7.7076182 15.75408 -2.0509889 63.93
-9.6667681 19.758509 -2.0521686 63.93
-12.13399 24.801416 -1.9307197 63.93
-2.0121918 4.112844 -2.038564 63.93
-2.138689 4.3713994 -2.0327206 63.93
-28.077133 57.388599 -1.483309 63.93
-2.2850792 4.6706157 -2.0303912 63.93
-2.4480605 5.0037432 -2.0274954 63.93
-24.841757 50.775608 1.3123847 63.93
-2.631289 5.3782549 -2.0231395 63.93
-2.8409841 5.8068638 -2.0172079 63.93
-3.0872252 6.3101716 -2.0143578 63.93
-3.3688285 6.8857584 -2.0067644 63.93
-3.720371 7.6042976 -2.0058656 63.93
-4.1172514 8.4155054 -1.9913782 63.93
-4.6331062 9.4698935 -1.9863117 63.93
-5.3186393 10.958173 -2.0012157 64.110001
-6.2550316 12.887453 -2.013278 64.110001
-7.6528831 15.767493 -2.0495951 64.110001
-9.5820398 19.742201 -2.0473382 64.110001
-12.047303 24.821466 -1.9293245 64.110001
-1.999261 4.1191449 -2.038564 64.110001
-2.1281686 4.3847375 -2.035804 64.110001
-27.85829 57.397377 -1.4812665 64.110001
-2.2712083 4.6794472 -2.0311186 64.110001
-24.899231 51.300728 0 64.110001
-2.4306877 5.0080276 -2.0261273 64.110001
-25.356115 52.242062 1.3482223 64.110001
-2.612725 5.3830857 -2.0218589 64.110001
-25.239458 52.001705 2.6955965 64.110001
-2.8143907 5.7985845 -2.0112503 64.110001
-3.0665467 6.31811 -2.0138066 64.110001
-3.3454902 6.8928266 -2.0057514 64.110001
-3.6939139 7.6106954 -2.0044823 64.110001
-4.0916471 8.4301586 -1.991794 64.110001
-4.6016164 9.4808655 -1.985571 64.110001
-5.280107 10.961459 -1.998946 64.279999
-6.2107496 12.893465 -2.0113297 64.279999
-7.5974455 15.772234 -2.0472722 64.279999
-9.5199652 19.763369 -2.0465951 64.279999
-11.964079 24.83733 -1.9277899 64.279999
-1.9878234 4.1267047 -2.0393775 64.279999
-2.1127467 4.386045 -2.0334914 64.279999
-27.673115 57.449158 -1.4804773 64.279999
-2.2565055 4.6844869 -2.0303912 64.279999
-24.729551 51.338345 0 64.279999
-2.4150021 5.0135245 -2.0254433 64.279999
-2.5975637 5.3925209 -2.0224991 64.279999
-25.023497 51.948574 2.6889818 64.279999
-2.7996593 5.8120694 -2.0130374 64.279999
-25.284918 52.491283 4.0741968 64.279999
-3.0494556 6.3306446 -2.014909 64.279999
-3.3258636 6.9044657 -2.006258 64.279999
-3.6713161 7.6216221 -2.0044823 64.279999
-4.0674653 8.4440241 -1.9922098 64.279999
-4.569201 9.4856234 -1.9837196 64.279999
-5.2439432 10.974431 -1.9982975 64.459999
-6.1676517 12.907552 -2.0104947 64.459999
-7.5444326 15.788855 -2.0463431 64.459999
-9.4329319 19.741074 -2.0412073 64.459999
-11.873089 24.84779 -1.9256972 64.459999
-1.9748492 4.1329293 -2.0393775 64.459999
-2.0973659 4.3893304 -2.0319498 64.459999
-27.4606 57.469059 -1.4787598 64.459999
-2.2441874 4.6965957 -2.0325737 64.459999
-2.4000502 5.0227823 -2.0261273 64.459999
-24.883072 52.074852 1.3399591 64.459999
-2.5781593 5.3955259 -2.0205784 64.459999
-24.767147 51.832249 2.6789198 64.459999
-2.7813864 5.8208361 -2.0130374 64.459999
-25.033009 52.388641 4.0601058 64.459999
-3.0262368 6.3332548 -2.0127039 64.459999
-3.3024879 6.9113884 -2.005245 64.459999
-3.6465151 7.6313624 -2.0040212 64.459999
-4.0375438 8.4497004 -1.9905466 64.459999
-4.5368366 9.4946108 -1.9826087 64.459999
-5.2082009 10.978334 -1.9963521 64.620003
-6.1264896 12.913989 -2.0088246 64.620003
-7.4952035 15.799093 -2.0449493 64.620003
-9.3632574 19.736752 -2.038049 64.620003
-11.788261 24.848404 -1.9231859 64.620003
-1.962517 4.1367774 -2.038564 64.620003
-2.0858915 4.3968377 -2.0327206 64.620003
-27.2743 57.491325 -1.477367 64.620003
-2.2286677 4.6977949 -2.0303912 64.620003
-2.3835979 5.0243711 -2.0240753 64.620003
-2.5647063 5.4061284 -2.0218589 64.620003
-24.214705 51.042023 2.6345723 64.620003
-2.7675757 5.8337555 -2.0148249 64.620003
-24.819057 52.315937 4.0490842 64.620003
-3.0093632 6.3434181 -2.0132554 64.620003
-3.2831748 6.9205837 -2.005245 64.620003
-3.62519 7.6415157 -2.0040212 64.620003
-4.0156093 8.4644775 -1.9913782 64.620003
-4.5094624 9.5054674 -1.9822383 64.620003
-5.1703248 10.987499 -1.9950551 64.800003
-6.0782995 12.917044 -2.0063195 64.800003
-7.4336915 15.797399 -2.041697 64.800003
-9.2935753 19.749853 -2.036377 64.800003
-11.699946 24.863651 -1.9215118 64.800003
-1.9471775 4.1379628 -2.0361238 64.800003
-2.0704966 4.4000292 -2.031179 64.800003
-27.081633 57.551399 -1.4767171 64.800003
-2.2154846 4.7081447 -2.031846 64.800003
-24.336693 51.718105 0 64.800003
-2.3694019 5.0352354 -2.0254433 64.800003
-2.5477097 5.4141588 -2.0218589 64.800003
-24.017654 51.040115 2.6305661 64.800003
-2.7467961 5.8372388 -2.0130374 64.800003
-24.788799 52.678879 4.0711274 64.800003
-2.9902387 6.3545804 -2.0138066 64.800003
-3.2605932 6.9291134 -2.0047386 64.800003
-3.602823 7.6563883 -2.0049434 64.800003
-3.9898305 8.4788208 -1.991794 64.800003
-4.4712095 9.5018044 -1.9785353 64.800003
-5.1343613 10.995639 -1.9937581 64.970001
-6.0349193 12.924254 -2.0046494 64.970001
-7.3800631 15.804986 -2.0398386 64.970001
-9.2298803 19.766516 -2.0352623 64.970001
-11.612617 24.869331 -1.9192796 64.970001
-1.9379835 4.1503439 -2.0393775 64.970001
-2.0589938 4.4094973 -2.0327206 64.970001
-26.865919 57.535477 -1.4742569 64.970001
-2.2022939 4.7163854 -2.0325737 64.970001
-2.3544517 5.0422435 -2.0254433 64.970001
-24.245989 51.92469 1.3304892 64.970001
-2.5324361 5.4234114 -2.0224991 64.970001
-23.827229 51.027882 2.6262805 64.970001
-2.7294645 5.8453627 -2.0130374 64.970001
-24.514212 52.499111 4.0515957 64.970001
-2.9705577 6.3616829 -2.0132554 64.970001
-3.2400198 6.9387574 -2.0047386 64.970001
-3.5792668 7.6652813 -2.0044823 64.970001
-3.9621727 8.4853039 -1.9905466 64.970001
-4.4454923 9.5203714 -1.9796462 64.970001
-5.0983953 11.003661 -1.9924611 65.139999
-5.9957132 12.940307 -2.0043709 65.139999
-7.3289609 15.817801 -2.038677 65.139999
-9.1762142 19.804655 -2.036377 65.139999
-11.534583 24.894627 -1.9185821 65.139999
-1.9233563 4.1511025 -2.036937 65.139999
-2.0451257 4.4139128 -2.0319498 65.139999
-26.699293 57.624008 -1.474489 65.139999
-2.1882904 4.722899 -2.0325737 65.139999
-24.136988 52.093887 0 65.139999
-2.3386908 5.047502 -2.0247593 65.139999
-24.044746 51.894806 1.3278896 65.139999
-2.5163333 5.4309011 -2.0224991 65.139999
-23.702597 51.156361 2.6292617 65.139999
-2.7137144 5.8569002 -2.0142291 65.139999
-24.330656 52.511879 4.0469913 65.139999
-2.9524772 6.3722129 -2.0138066 65.139999
-3.221858 6.9536066 -2.006258 65.139999
-3.5548713 7.6723356 -2.0035601 65.139999
-3.9369788 8.4970226 -1.9905466 65.139999
-4.4188776 9.5370855 -1.9803869 65.139999
-5.058033 11.007071 -1.9901915 65.32
-5.9467607 12.941082 -2.0015876 65.32
-7.2709374 15.822698 -2.0363541 65.32
-9.1056366 19.81529 -2.0345192 65.32
-11.439656 24.894484 -1.9157917 65.32
-1.9103057 4.1571245 -2.036937 65.32
-2.0320196 4.4219928 -2.0327206 65.32
-24.300703 52.882133 -1.3511932 65.32
-2.1711085 4.7246718 -2.0303912 65.32
-24.01079 52.25124 0 65.32
-2.3228221 5.0548244 -2.0247593 65.32
-2.5000505 5.4405012 -2.0231395 65.32
-23.500059 51.139805 2.6246035 65.32
-2.6953008 5.8653965 -2.0142291 65.32
-24.158901 52.573551 4.0458755 65.32
-2.9316411 6.3797102 -2.0132554 65.32
-3.1991889 6.961936 -2.0057514 65.32
-3.5307505 7.683466 -2.0035601 65.32
-3.911082 8.5111265 -1.9909624 65.32
-4.3888941 9.5509205 -1.9803869 65.32
-5.0239997 11.01397 -1.9888945 65.480003
-5.9089556 12.954035 -2.0010309 65.480003
-7.2226014 15.833903 -2.0351925 65.480003
-9.0370436 19.811653 -2.0315466 65.480003
-11.365953 24.917255 -1.9150943 65.480003
-1.900206 4.1657672 -2.038564 65.480003
-2.0196631 4.42765 -2.0327206 65.480003
-26.320366 57.701385 -1.4724463 65.480003
-2.1586795 4.7324114 -2.0311186 65.480003
-2.3079174 5.0595813 -2.0240753 65.480003
-23.626841 51.796452 1.3217618 65.480003
-2.4872072 5.4526334 -2.0250602 65.480003
-2.6765342 5.8676896 -2.0124419 65.480003
-24.151098 52.945766 4.0693135 65.480003
-2.9138143 6.3878717 -2.0132554 65.480003
-3.1789322 6.9690824 -2.005245 65.480003
-3.5092804 7.6932955 -2.0035601 65.480003
-3.8864875 8.520236 -1.9905466 65.480003
-4.3589435 9.5559874 -1.9789056 65.480003
-4.9853063 11.020709 -1.9872733 65.660004
-5.8633323 12.961707 -1.9993608 65.660004
-7.1654539 15.840227 -2.0331018 65.660004
-8.9608059 19.809101 -2.0283883 65.660004
-11.290085 24.958294 -1.9155128 65.660004
-1.8848504 4.1667223 -2.0361238 65.660004
-2.0072646 4.437336 -2.0342624 65.660004
-2.1438015 4.7391696 -2.0311186 65.660004
-2.29356 5.0702314 -2.0254433 65.660004
-23.268694 51.438667 1.31076 65.660004
-2.4669411 5.4535146 -2.0224991 65.660004
-23.301573 51.511349 2.6365287 65.660004
-2.658087 5.8760691 -2.0124419 65.660004
-2.8929393 6.3952427 -2.0127039 65.660004
-3.1554277 6.9755092 -2.0042319 65.660004
-3.4866982 7.7078285 -2.0044823 65.660004
-3.8588948 8.5306206 -1.9901307 65.660004
-4.3248506 9.5606804 -1.9770541 65.660004
-4.9525852 11.035452 -1.9872733 65.830002
-5.8191719 12.966398 -1.9974123 65.830002
-7.1094766 15.841482 -2.0305464 65.830002
-8.8946543 19.81925 -2.0267162 65.830002
-11.224968 25.011703 -1.9170474 65.830002
-1.8747234 4.1772971 -2.038564 65.830002
-1.9940898 4.4432721 -2.0342624 65.830002
-2.1289678 4.7438097 -2.0303912 65.830002
-2.2800453 5.0804434 -2.0268114 65.830002
-23.329643 51.983593 1.322876 65.830002
-2.4515252 5.4625387 -2.0231395 65.830002
-23.097918 51.467251 2.6307523 65.830002
-2.6390772 5.880446 -2.0112503 65.830002
-2.8747387 6.4055519 -2.0132554 65.830002
-3.1339247 6.9830756 -2.0037255 65.830002
-3.4614229 7.7128134 -2.003099 65.830002
-3.8343682 8.5438175 -1.9905466 65.830002
-4.2972693 9.575263 -1.9774244 65.830002
-4.9130778 11.040138 -1.9853278 66.010002
-5.775187 12.977378 -1.9962989 66.010002
-7.0556359 15.854665 -2.0293851 66.010002
-8.8193922 19.817986 -2.0237436 66.010002
-11.187706 25.139807 -1.9241626 66.010002
-1.8608479 4.1814971 -2.0377505 66.010002
-1.9771198 4.4427705 -2.031179 66.010002
-2.1125393 4.7470708 -2.0289361 66.010002
-2.2625451 5.0841475 -2.0254433 66.010002
-23.184103 52.096813 1.3238972 66.010002
-2.4328115 5.4667516 -2.0218589 66.010002
-2.6229191 5.8939409 -2.0130374 66.010002
-2.8553827 6.4163079 -2.0138066 66.010002
-3.1127579 6.9946542 -2.0042319 66.010002
-3.4387579 7.7272058 -2.0040212 66.010002
-3.807508 8.5558214 -1.9905466 66.010002
-4.2679658 9.5905123 -1.9777946 66.010002
-4.8817649 11.047547 -1.9843551 66.160004
-5.7371902 12.983396 -1.9949073 66.160004
-7.0052724 15.853095 -2.0268297 66.160004
-8.7626486 19.830078 -2.022629 66.160004
-11.236361 25.428146 -1.9439734 66.160004
-1.849156 4.1846833 -2.036937 66.160004
-1.9677197 4.4529953 -2.0334914 66.160004
-2.1038692 4.7611051 -2.0325737 66.160004
-2.2499866 5.0917721 -2.0261273 66.160004
-2.4192569 5.4748349 -2.0224991 66.160004
-2.6090231 5.9042802 -2.0142291 66.160004
-2.8377979 6.4220028 -2.0132554 66.160004
-3.0959995 7.006319 -2.005245 66.160004
-3.4161565 7.7308416 -2.0026376 66.160004
-3.7850959 8.5657606 -1.9905466 66.160004
-4.2396655 9.5944614 -1.9763135 66.160004
-4.8395615 11.051021 -1.9820855 66.349998
-5.6861591 12.984207 -1.9921237 66.349998
-6.9494758 15.868959 -2.0259004 66.349998
-8.6768713 19.813425 -2.0179844 66.349998
-11.288034 25.775953 -1.9676906 66.349998
-1.8338031 4.1874447 -2.0353103 66.349998
-1.9507213 4.4544249 -2.031179 66.349998
-2.0880692 4.7680559 -2.0325737 66.349998
-2.2308276 5.0940409 -2.0240753 66.349998
-23.29163 53.185871 1.3480365 66.349998
-2.3995683 5.4793563 -2.0212188 66.349998
-23.147591 52.856964 2.6909382 66.349998
-2.5886636 5.9111505 -2.0136333 66.349998
-2.8164864 6.4313779 -2.0132554 66.349998
-3.0727487 7.0165472 -2.005245 66.349998
-3.3897207 7.740345 -2.0021765 66.349998
-3.7558854 8.5764732 -1.9901307 66.349998
-4.2070374 9.6066675 -1.9759432 66.349998
-4.8106132 11.063653 -1.9820855 66.5
-5.6481986 12.989967 -1.9907321 66.5
-6.9039469 15.877991 -2.024739 66.5
-8.618618 19.821465 -2.0164981 66.5
-11.331097 26.059738 -1.987083 66.5
-1.8272054 4.2022848 -2.0401909 66.5
-1.9405247 4.4629011 -2.0327206 66.5
-25.165449 57.876572 -1.4652511 66.5
-2.072608 4.7666721 -2.0296638 66.5
-2.2174838 5.0998635 -2.0240753 66.5
-23.139553 53.217327 1.3472937 66.5
-2.3874817 5.4908323 -2.0231395 66.5
-23.105526 53.139069 2.7022114 66.5
-2.5716567 5.9144058 -2.0124419 66.5
-2.7996392 6.4387298 -2.0132554 66.5
-3.0528259 7.021019 -2.0042319 66.5
-3.3717728 7.7545466 -2.0035601 66.5
-3.7318592 8.5826883 -1.9892991 66.5
-4.1818728 9.6176491 -1.9759432 66.5
-4.7699938 11.070482 -1.9804642 66.690002
-5.6019564 13.00135 -1.9896187 66.690002
-6.8433948 15.882554 -2.0224159 66.690002
-8.5370798 19.813358 -2.0127823 66.690002
-11.304618 26.236423 -1.9976859 66.690002
-1.8110911 4.2032871 -2.0377505 66.690002
-1.9279053 4.4743962 -2.0350332 66.690002
-24.952814 57.911961 -1.4640441 66.690002
-2.0567896 4.7735186 -2.0296638 66.690002
-2.2013035 5.1089149 -2.0247593 66.690002
-22.924181 53.203793 1.3450191 66.690002
-2.3662612 5.4917588 -2.0205784 66.690002
-2.5512743 5.9211478 -2.0118461 66.690002
-2.77599 6.4426813 -2.0116014 66.690002
-3.030292 7.0328808 -2.0047386 66.690002
-3.343729 7.7603235 -2.0021765 66.690002
-3.7041516 8.5968132 -1.9897149 66.690002
-4.1522899 9.636879 -1.9770541 66.690002
-4.7359571 11.076501 -1.9791672 66.849998
-5.5609565 13.006017 -1.9879485 66.849998
-6.7912064 15.883337 -2.020093 66.849998
-8.4644947 19.796839 -2.0086951 66.849998
-11.236798 26.280731 -1.9986625 66.849998
-1.7971914 4.2032881 -2.0353103 66.849998
-1.9125007 4.4729748 -2.0319498 66.849998
-24.777634 57.950165 -1.4632549 66.849998
-2.0412543 4.7741046 -2.0274813 66.849998
-2.1848116 5.109858 -2.0227072 66.849998
-22.925659 53.618748 1.3538857 66.849998
-2.3531508 5.5035715 -2.0224991 66.849998
-23.169273 54.188519 2.7483289 66.849998
-2.53548 5.9300046 -2.0124419 66.849998
-2.7572322 6.4486403 -2.0110502 66.849998
-3.0098803 7.0395365 -2.0042319 66.849998
-3.3220451 7.7696309 -2.0021765 66.849998
-3.6793611 8.6053247 -1.9892991 66.849998
-4.1214991 9.6394005 -1.9752026 66.849998
-4.6922712 11.07579 -1.9762491 67.040001
-5.5116153 13.009797 -1.9857218 67.040001
-6.7322989 15.891138 -2.0182345 67.040001
-8.3964691 19.8193 -2.0081379 67.040001
-11.138691 26.29213 -1.9967093 67.040001
-1.7839556 4.210907 -2.0361238 67.040001
-1.8962176 4.475894 -2.0304081 67.040001
-24.560369 57.973099 -1.4617695 67.040001
-2.0312254 4.7945709 -2.0333011 67.040001
-2.1693211 5.1205363 -2.0240753 67.040001
-22.753185 53.707363 1.3542106 67.040001
-2.3334093 5.5078554 -2.0212188 67.040001
-2.5158014 5.9383802 -2.0124419 67.040001
-2.7388322 6.4648294 -2.0132554 67.040001
-2.9850101 7.0459156 -2.0032189 67.040001
-3.2970209 7.7823963 -2.0026376 67.040001
-3.6500416 8.6156769 -1.9888833 67.040001
-4.0933442 9.6620636 -1.9770541 67.040001
-4.650979 11.06965 -1.9726825 67.209999
-5.4699216 13.018789 -1.9846084 67.209999
-6.6797328 15.898223 -2.0166085 67.209999
-8.3306847 19.827602 -2.0064659 67.209999
-11.056767 26.315866 -1.9960117 67.209999
-1.7728692 4.2195506 -2.0377505 67.209999
-1.8836439 4.483202 -2.031179 67.209999
-24.368114 57.997787 -1.4605625 67.209999
-2.0141041 4.7937064 -2.0303912 67.209999
-2.1533904 5.1252174 -2.0233912 67.209999
-22.616194 53.828094 1.3555568 67.209999
-2.3177907 5.5165014 -2.0218589 67.209999
-2.4974313 5.9440584 -2.0118461 67.209999
-2.7181494 6.4693823 -2.0121527 67.209999
-2.9640915 7.0547414 -2.0032189 67.209999
-3.2746696 7.7939386 -2.003099 67.209999
-3.6237044 8.6246662 -1.9884675 67.209999
-4.0608516 9.6651068 -1.9752026 67.209999
-4.6185298 11.078951 -1.972034 67.370003
-5.4304967 13.026702 -1.983495 67.370003
-6.6246099 15.891146 -2.0133562 67.370003
-8.2653217 19.826893 -2.0040505 67.370003
-10.976328 26.330067 -1.9947561 67.370003
-1.7624851 4.2278576 -2.0393775 67.370003
-1.8739574 4.4952579 -2.0342624 67.370003
-24.197596 58.045307 -1.4600518 67.370003
-1.999993 4.7975926 -2.0296638 67.370003
-2.1376235 5.1277413 -2.0220232 67.370003
-2.3038349 5.5264502 -2.0231395 67.370003
-2.4822919 5.9545336 -2.0130374 67.370003
-2.7000728 6.4769473 -2.0121527 67.370003
-2.9451239 7.0647769 -2.0037255 67.370003
-3.2513943 7.7994604 -2.0021765 67.370003
-3.6011112 8.6383629 -1.9892991 67.370003
-4.0338459 9.6764088 -1.9752026 67.370003
-4.5909152 11.105372 -1.9743036 67.540001
-5.3865256 13.029944 -1.9815466 67.540001
-6.5766716 15.908895 -2.013124 67.540001
-8.2064581 19.85133 -2.0040505 67.540001
-10.889772 26.342236 -1.9932215 67.540001
-1.7485371 4.2296915 -2.0377505 67.540001
-1.8592014 4.4973874 -2.0327206 67.540001
-24.003878 58.065109 -1.458752 67.540001
-1.9864612 4.8052273 -2.0303912 67.540001
-2.1245539 5.1392717 -2.0240753 67.540001
-2.2859797 5.5297594 -2.0218589 67.540001
-2.465343 5.9636369 -2.0136333 67.540001
-2.6793745 6.4813766 -2.0110502 67.540001
-2.9234102 7.0716963 -2.0032189 67.540001
-3.2297256 7.8126698 -2.003099 67.540001
-3.5747175 8.6472015 -1.9888833 67.540001
-4.0028653 9.6828861 -1.9740916 67.540001
-4.562881 11.125454 -1.9756006 67.699997
-5.3456092 13.033941 -1.9798765 67.699997
-6.5261898 15.912496 -2.0112655 67.699997
-8.1358786 19.83732 -2.000335 67.699997
-10.818439 26.37808 -1.9936401 67.699997
-1.7360255 4.2328672 -2.036937 67.699997
-1.8445343 4.4974394 -2.0304081 67.699997
-23.831772 58.107864 -1.4581485 67.699997
-1.9730346 4.8107557 -2.0303912 67.699997
-2.1080546 5.1399679 -2.0220232 67.699997
-2.2719669 5.5396276 -2.0231395 67.699997
-2.4457819 5.9634323 -2.0112503 67.699997
-2.6634531 6.4941702 -2.0127039 67.699997
-2.9051192 7.0834126 -2.0042319 67.699997
-3.2056806 7.816257 -2.0017154 67.699997
-3.552783 8.6625805 -1.9901307 67.699997
-3.9743183 9.6903896 -1.973351 67.699997
-4.5177917 11.120411 -1.972034 67.889999
-5.2956486 13.035083 -1.9773715 67.889999
-6.4651618 15.913805 -2.0087101 67.889999
-8.0565596 19.830982 -1.9969908 67.889999
-10.709881 26.362057 -1.9897337 67.889999
-1.7219793 4.2386012 -2.036937 67.889999
-1.8289155 4.5018215 -2.0296373 67.889999
-23.620888 58.142117 -1.4570345 67.889999
-1.9549671 4.8120942 -2.0282087 67.889999
-2.0931203 5.152154 -2.0240753 67.889999
-2.252871 5.5453758 -2.0224991 67.889999
-2.4281487 5.9768167 -2.0130374 67.889999
-2.6426268 6.5047479 -2.0132554 67.889999
-2.8808856 7.0912147 -2.0037255 67.889999
-3.1804757 7.8286471 -2.0021765 67.889999
-3.5210922 8.6670647 -1.9884675 67.889999
-3.9399426 9.6980524 -1.9722401 67.889999
-4.4818273 11.126444 -1.970737 68.059998
-5.2547293 13.045226 -1.9765364 68.059998
-6.4149475 15.925548 -2.007781 68.059998
-7.9991722 19.858494 -1.9973624 68.059998
-10.625652 26.378912 -1.9886175 68.059998
-1.7093955 4.2436914 -2.036937 68.059998
-1.8176188 4.5123634 -2.0319498 68.059998
-23.434078 58.176708 -1.4561524 68.059998
-1.9434651 4.8247857 -2.0311186 68.059998
-2.0764201 5.1548553 -2.0227072 68.059998
-2.2378237 5.5555511 -2.0237796 68.059998
-2.4104047 5.983995 -2.0130374 68.059998
-2.6233151 6.5125599 -2.0132554 68.059998
-2.8554955 7.088963 -2.0006864 68.059998
-3.1565065 7.8362441 -2.0017154 68.059998
-3.4946301 8.6756592 -1.9880515 68.059998
-3.9126194 9.7133465 -1.9729807 68.059998
-4.4363518 11.108536 -1.9652249 68.230003
-5.2115932 13.049725 -1.9748663 68.230003
-6.3617735 15.929752 -2.0059226 68.230003
-7.9372616 19.874743 -1.9966192 68.230003
-10.533278 26.375118 -1.9859668 68.230003
-1.6974744 4.2504416 -2.0377505 68.230003
-1.8055913 4.5211644 -2.0334914 68.230003
-23.244305 58.203274 -1.4550847 68.230003
-1.9263774 4.8236103 -2.0282087 68.230003
-2.0632071 5.1662292 -2.0247593 68.230003
-2.2206275 5.5604067 -2.0231395 68.230003
-2.3898067 5.9840279 -2.0106544 68.230003
-2.6032674 6.5185294 -2.0127039 68.230003
-2.8394725 7.109982 -2.0042319 68.230003
-3.1332421 7.8455753 -2.0017154 68.230003
-3.4688735 8.6859894 -1.9880515 68.230003
-3.8866978 9.732213 -1.9744619 68.230003
-4.4028835 11.126088 -1.9658734 68.410004
-5.1661978 13.054983 -1.9731963 68.410004
-6.3051186 15.933036 -2.0038319 68.410004
-7.8674569 19.881065 -1.9947615 68.410004
-10.454038 26.417355 -1.9866644 68.410004
-1.6827682 4.2523556 -2.0361238 68.410004
-1.7893416 4.5216665 -2.031179 68.410004
-23.050304 58.248123 -1.4543884 68.410004
-1.9125851 4.8331027 -2.0296638 68.410004
-2.0469668 5.1726856 -2.0247593 68.410004
-2.2024508 5.5655937 -2.0224991 68.410004
-2.3724008 5.9950566 -2.0118461 68.410004
-2.5827761 6.5266757 -2.0127039 68.410004
-2.817122 7.1188674 -2.0042319 68.410004
-3.1114435 7.8626184 -2.0035601 68.410004
-3.4408486 8.6950254 -1.9876357 68.410004
-3.8561041 9.7443752 -1.9744619 68.410004
-4.3768439 11.151199 -1.9681431 68.57
-5.1261034 13.060141 -1.9718045 68.57
-6.2555203 15.937637 -2.0022058 68.57
-7.8053598 19.886274 -1.9930893 68.57
-10.367105 26.413015 -1.9841532 68.57
-1.6702193 4.2553372 -2.0353103 68.57
-1.7746849 4.521492 -2.0288663 68.57
-22.874405 58.278763 -1.4535528 68.57
-1.8990811 4.8384252 -2.0296638 68.57
-2.0318274 5.1766324 -2.0240753 68.57
-2.1875925 5.5734859 -2.0231395 68.57
-2.3563476 6.0034356 -2.0124419 68.57
-2.5624328 6.5284939 -2.0110502 68.57
-2.8000588 7.1339107 -2.006258 68.57
-3.0894749 7.8712764 -2.0035601 68.57
-3.4165542 8.7046003 -1.9876357 68.57
-3.8260052 9.7477875 -1.9729807 68.57
-4.3423076 11.160459 -1.9674946 68.739998
-5.0837398 13.066064 -1.9704127 68.739998
-6.2060442 15.950574 -2.0015087 68.739998
-7.7326021 19.874084 -1.9895594 68.739998
-10.264817 26.382301 -1.9795492 68.739998
-1.6589111 4.26368 -2.036937 68.739998
-1.7625999 4.5301776 -2.0304081 68.739998
-1.8833658 4.8405662 -2.0282087 68.739998
-21.74589 55.890583 0 68.739998
-2.016459 5.1826382 -2.0240753 68.739998
-21.771931 55.957512 1.3940403 68.739998
-2.1689849 5.5746546 -2.0212188 68.739998
-2.3385248 6.0104008 -2.0124419 68.739998
-2.5451424 6.5414429 -2.0127039 68.739998
-2.7767751 7.1367779 -2.0047386 68.739998
-3.0618727 7.8695264 -2.0007932 68.739998
-3.3907123 8.7146988 -1.9876357 68.739998
-3.7963536 9.7572651 -1.9726105 68.739998
-4.3042035 11.160403 -1.9652249 68.910004
-5.0399613 13.068155 -1.9684644 68.910004
-6.1551166 15.95965 -2.0003474 68.910004
-7.6614194 19.865355 -1.9864011 68.910004
-10.177161 26.388441 -1.9777355 68.910004
-1.6482255 4.2736974 -2.0393775 68.910004
-1.749151 4.5353875 -2.0304081 68.910004
-22.500832 58.342587 -1.4517888 68.910004
-1.8703361 4.8496089 -2.0296638 68.910004
-2.0010731 5.1885982 -2.0240753 68.910004
-2.1524351 5.5810657 -2.0212188 68.910004
-2.3206813 6.0173125 -2.0124419 68.910004
-2.5257225 6.5489659 -2.0127039 68.910004
-2.7548916 7.1431804 -2.0042319 68.910004
-3.0385098 7.8785763 -2.0007932 68.910004
-3.3648403 8.724721 -1.9876357 68.910004
-3.7666793 9.7666521 -1.9722401 68.910004
-4.2684164 11.172027 -1.9649006 69.089996
-4.9960542 13.076524 -1.967351 69.089996
-6.0999846 15.965919 -1.9987212 69.089996
-7.593287 19.874445 -1.9849149 69.089996
-10.099906 26.435194 -1.9788517 69.089996
-1.632183 4.272027 -2.0361238 69.089996
-1.7362113 4.5443077 -2.0319498 69.089996
-22.293882 58.351349 -1.4502568 69.089996
-1.8544264 4.8537207 -2.0289361 69.089996
-1.9854335 5.1966147 -2.0247593 69.089996
-2.1362433 5.5913401 -2.0224991 69.089996
-2.3031287 6.0281405 -2.0136333 69.089996
-2.5037634 6.5532765 -2.0116014 69.089996
-2.7331276 7.1536069 -2.0047386 69.089996
-3.0151329 7.8917193 -2.0017154 69.089996
-3.3360178 8.7315941 -1.9868041 69.089996
-3.7366793 9.7802734 -1.9726105 69.089996
-4.234695 11.189073 -1.9655491 69.269997
-4.9500413 13.079188 -1.9654025 69.269997
-6.0427647 15.966425 -1.9963982 69.269997
-7.516715 19.860952 -1.9811991 69.269997
-10.004096 26.433207 -1.9763404 69.269997
-1.6174605 4.273716 -2.0344968 69.269997
-1.7212732 4.5480142 -2.031179 69.269997
-22.101257 58.39679 -1.4496534 69.269997
-1.8391689 4.8595223 -2.0289361 69.269997
-1.9690981 5.2028265 -2.0247593 69.269997
-2.1173258 5.5944796 -2.0212188 69.269997
-2.2835035 6.0335608 -2.0130374 69.269997
-2.483844 6.5629077 -2.0121527 69.269997
-2.7113252 7.1639676 -2.005245 69.269997
-2.9903255 7.9011526 -2.0017154 69.269997
-3.3078778 8.740202 -1.9863883 69.269997
-3.7059352 9.7919645 -1.9726105 69.269997
-4.2034326 11.200855 -1.9655491 69.43
-4.9079309 13.078126 -1.9631758 69.43
-5.9946651 15.973938 -1.9952366 69.43
-7.453527 19.861357 -1.9791555 69.43
-9.9232311 26.44236 -1.9749453 69.43
-1.6080875 4.2850585 -2.0377505 69.43
-1.7092144 4.5545306 -2.0319498 69.43
-21.926855 58.428326 -1.4489106 69.43
-1.8255913 4.8646398 -2.0289361 69.43
-1.9558821 5.2118239 -2.0261273 69.43
-2.1036921 5.6056924 -2.0231395 69.43
-2.2653043 6.0363388 -2.0118461 69.43
-2.4655073 6.5698185 -2.0121527 69.43
-2.6906292 7.1696997 -2.0047386 69.43
-2.9675658 7.9076505 -2.0012543 69.43
-3.2834578 8.7494049 -1.9863883 69.43
-3.6792672 9.8041153 -1.9729807 69.43
-4.1661606 11.208455 -1.9645764 69.610001
-4.8682008 13.097194 -1.9637325 69.610001
-5.937531 15.974072 -1.9929137 69.610001
-7.3792996 19.852943 -1.9759972 69.610001
-9.8296852 26.445353 -1.9728526 69.610001
-1.5958909 4.2935147 -2.0393775 69.610001
-1.6929686 4.5546885 -2.0296373 69.610001
-21.729954 58.461315 -1.4480286 69.610001
-1.8102996 4.8703508 -2.0289361 69.610001
-1.9381894 5.2144198 -2.0247593 69.610001
-2.0840905 5.6069455 -2.0212188 69.610001
-2.2449989 6.0398469 -2.0106544 69.610001
-2.4441855 6.5757298 -2.0116014 69.610001
-2.6660695 7.1726766 -2.0032189 69.610001
-2.9420307 7.9151101 -2.0007932 69.610001
-3.2545912 8.7560091 -1.9855566 69.610001
-3.6450245 9.8064146 -1.9711292 69.610001
-4.1308398 11.215212 -1.9636037 69.779999
-4.8272657 13.106005 -1.9628974 69.779999
-5.8818698 15.969251 -1.990126 69.779999
-7.3024673 19.826166 -1.9711668 69.779999
-9.7366962 26.435085 -1.9699228 69.779999
-1.5825132 4.2965164 -2.038564 69.779999
-1.6788093 4.5579596 -2.0288663 69.779999
-21.5488 58.504894 -1.447518 69.779999
-1.7951972 4.8739524 -2.0282087 69.779999
-1.9207606 5.2148566 -2.0227072 69.779999
-2.0674453 5.6131043 -2.0212188 69.779999
-2.2283883 6.0500641 -2.0118461 69.779999
-2.4239998 6.5811486 -2.0110502 69.779999
-2.6474509 7.1878176 -2.005245 69.779999
-2.9185331 7.9238043 -2.0007932 69.779999
-3.2292736 8.7674627 -1.9859725 69.779999
-3.6145539 9.8134975 -1.9703887 69.779999
-4.0988984 11.231127 -1.9642521 69.949997
-4.7829261 13.105386 -1.9606706 69.949997
-5.8296952 15.97357 -1.9885 69.949997
-7.2408791 19.840263 -1.9704237 69.949997
-9.6602707 26.469481 -1.9703413 69.949997
-1.5703846 4.3029094 -2.0393775 69.949997
-1.6697071 4.5750561 -2.0342624 69.949997
-21.358665 58.523491 -1.4464039 69.949997
-1.780728 4.8792572 -2.0282087 69.949997
-1.9052795 5.2205329 -2.0227072 69.949997
-2.0494826 5.615654 -2.0199382 69.949997
-2.2104275 6.0566492 -2.0118461 69.949997
-2.4044626 6.5883117 -2.0110502 69.949997
-2.6254494 7.1938233 -2.0047386 69.949997
-2.8923411 7.9251161 -1.9989488 69.949997
-3.202575 8.7751684 -1.9855566 69.949997
-3.5874422 9.8297176 -1.9714996 69.949997
-4.0662284 11.245094 -1.9645764 70.120003
-4.7399797 13.108344 -1.9590006 70.120003
-5.7782221 15.979588 -1.9871062 70.120003
-7.1894288 19.882259 -1.9724673 70.120003
-9.5721931 26.47176 -1.9683882 70.120003
-1.5569894 4.3058314 -2.038564 70.120003
-1.65236 4.5695772 -2.0296373 70.120003
-21.16861 58.541481 -1.4452897 70.120003
-1.7649761 4.8810153 -2.0267537 70.120003
-1.8904206 5.2279301 -2.0233912 70.120003
-21.249521 58.765236 1.4508139 70.120003
-2.0321672 5.6199284 -2.0192981 70.120003
-2.1930966 6.0649767 -2.0124419 70.120003
-2.3855579 6.5972252 -2.0116014 70.120003
-2.6034353 7.1997623 -2.0042319 70.120003
-2.8681524 7.9318328 -1.9984877 70.120003
-3.177855 8.788311 -1.9863883 70.120003
-3.5562561 9.834774 -1.9703887 70.120003
-4.0301833 11.249678 -1.9632795 70.290001
-4.6977258 13.113028 -1.9576088 70.290001
-5.7227449 15.97422 -1.9843185 70.290001
-7.1263757 19.892256 -1.9713527 70.290001
-9.4875526 26.483141 -1.9671326 70.290001
-1.5411259 4.3018317 -2.0344968 70.290001
-1.6394169 4.5761971 -2.0304081 70.290001
-20.995495 58.605915 -1.4453362 70.290001
-1.7517427 4.8897386 -2.0282087 70.290001
-1.8749007 5.2335162 -2.0233912 70.290001
-21.049442 58.7565 1.4490499 70.290001
-2.0161226 5.627717 -2.0199382 70.290001
-2.173804 6.067862 -2.0112503 70.290001
-2.365973 6.6042743 -2.0116014 70.290001
-2.5814092 7.2056336 -2.0037255 70.290001
-2.8452618 7.9421401 -1.9989488 70.290001
-3.1504462 8.7940178 -1.9855566 70.290001
-3.5283859 9.8489828 -1.9711292 70.290001
-3.996141 11.266004 -1.9639279 70.470001
-4.6472378 13.101589 -1.953712 70.470001
-5.6678834 15.979015 -1.9826924 70.470001
-7.0558586 19.892023 -1.9691232 70.470001
-9.3909674 26.475208 -1.9643424 70.470001
-1.5294361 4.3118181 -2.036937 70.470001
-1.6244154 4.5795856 -2.0296373 70.470001
-20.793228 58.620705 -1.4440827 70.470001
-1.7369953 4.8969736 -2.0289361 70.470001
-1.8584498 5.2393804 -2.0233912 70.470001
-20.861408 58.812916 1.4488177 70.470001
-1.9984328 5.6340232 -2.0199382 70.470001
-2.1547306 6.0746613 -2.0112503 70.470001
-2.3452134 6.6116743 -2.0116014 70.470001
-2.5594063 7.2155313 -2.0042319 70.470001
-2.8209474 7.9528737 -1.9994099 70.470001
-3.1221495 8.8020287 -1.9851408 70.470001
-3.4987411 9.8637238 -1.9718698 70.470001
-3.9607339 11.272225 -1.9629552 70.639999
-4.6030917 13.100371 -1.9514853 70.639999
-5.613863 15.97702 -1.9803694 70.639999
-6.988225 19.888447 -1.9667081 70.639999
-9.3090649 26.493546 -1.9636447 70.639999
-1.5172417 4.3180609 -2.0377505 70.639999
-1.6120439 4.5878673 -2.031179 70.639999
-20.61059 58.657616 -1.4434793 70.639999
-1.7206054 4.8968325 -2.0267537 70.639999
-1.8428961 5.2448716 -2.0233912 70.639999
-20.667593 58.819847 1.4474716 70.639999
-1.9810793 5.6381402 -2.0192981 70.639999
-2.1373303 6.082829 -2.0118461 70.639999
-2.3243113 6.6149759 -2.0104988 70.639999
-2.5347791 7.2139664 -2.0016994 70.639999
-2.7979836 7.9630446 -1.999871 70.639999
-3.097965 8.8167906 -1.9863883 70.639999
-3.4668531 9.8666439 -1.9703887 70.639999
-3.9272711 11.283927 -1.9629552 70.809998
-4.571363 13.134547 -1.954547 70.809998
-5.5631685 15.984226 -1.9792079 70.809998
-6.9252567 19.89781 -1.9655933 70.809998
-9.2232027 26.500322 -1.96211 70.809998
-1.5038226 4.3208179 -2.036937 70.809998
-1.5966045 4.5874014 -2.0288663 70.809998
-20.429886 58.699627 -1.4430151 70.809998
-1.7079058 4.9071946 -2.0289361 70.809998
-1.8279439 5.2520914 -2.0240753 70.809998
-20.48115 58.84692 1.446636 70.809998
-1.964342 5.6439934 -2.0192981 70.809998
-2.1186452 6.0873408 -2.0112503 70.809998
-2.3040421 6.6200275 -2.0099475 70.809998
-2.5159075 7.2287645 -2.0037255 70.809998
-2.7730651 7.9676356 -1.9989488 70.809998
-3.0692194 8.818553 -1.984725 70.809998
-3.4375632 9.8768864 -1.9703887 70.809998
-3.8905165 11.292478 -1.9623067 70.989998
-4.5287867 13.145099 -1.9539903 70.989998
-5.5083961 15.988478 -1.9775817 70.989998
-6.8542795 19.894993 -1.9631782 70.989998
-9.1470528 26.549915 -1.9636447 70.989998
-1.4920263 4.3307033 -2.0393775 70.989998
-1.5833871 4.5958843 -2.0304081 70.989998
-20.236908 58.738945 -1.4424117 70.989998
-1.691874 4.9107747 -2.0282087 70.989998
-1.8108228 5.256031 -2.0233912 70.989998
-20.283802 58.875053 1.4457539 70.989998
-1.945984 5.648345 -2.0186577 70.989998
-2.1001327 6.0957718 -2.0118461 70.989998
-2.2851119 6.6326861 -2.0116014 70.989998
-2.4906645 7.2293158 -2.0016994 70.989998
-2.7461185 7.970788 -1.9975654 70.989998
-3.0427744 8.831851 -1.9855566 70.989998
-3.4071572 9.8894958 -1.9707589 70.989998
-3.8596637 11.298889 -1.9616582 71.139999
-4.4873152 13.136293 -1.9509286 71.139999
-5.4639506 15.995325 -1.9766526 71.139999
-6.7925153 19.884602 -1.9603914 71.139999
-9.0684843 26.54734 -1.9616915 71.139999
-1.4789116 4.3294077 -2.036937 71.139999
-1.5743326 4.6087456 -2.0342624 71.139999
-20.071428 58.757668 -1.441576 71.139999
-1.6784097 4.913424 -2.0274813 71.139999
-1.7958413 5.2571969 -2.0220232 71.139999
-20.119257 58.897682 1.4450113 71.139999
-1.9305775 5.6516275 -2.0180175 71.139999
-2.0854011 6.1048627 -2.0130374 71.139999
-2.2683613 6.6404653 -2.0121527 71.139999
-2.4742315 7.243135 -2.0037255 71.139999
-2.7296455 7.9908414 -2.0007932 71.139999
-3.0183775 8.8360844 -1.984725 71.139999
-3.3799844 9.8946619 -1.9700183 71.139999
-3.8235161 11.309089 -1.961334 71.32
-4.4346061 13.116554 -1.9459183 71.32
-5.4085832 15.997356 -1.9747941 71.32
-6.7178946 19.870001 -1.9568615 71.32
-8.9760933 26.549238 -1.9597384 71.32
-1.4664735 4.3374944 -2.038564 71.32
-1.5580728 4.6084242 -2.0319498 71.32
-19.879051 58.797703 -1.4410189 71.32
-1.6629654 4.9186726 -2.0274813 71.32
-1.7787147 5.2610326 -2.0213389 71.32
-19.920036 58.918926 1.44399 71.32
-1.9128129 5.6576648 -2.0180175 71.32
-2.0643775 6.105958 -2.0112503 71.32
-2.2474885 6.6475587 -2.0121527 71.32
-2.4514642 7.2508726 -2.0037255 71.32
-2.7057745 8.0030642 -2.0017154 71.32
-2.9893501 8.8418159 -1.9838934 71.32
-3.3482533 9.9033699 -1.969648 71.32
-3.7899446 11.320384 -1.961334 71.489998
-4.395669 13.129654 -1.9459183 71.489998
-5.3560495 15.998264 -1.9729358 71.489998
-6.6481624 19.857744 -1.9537032 71.489998
-8.8960142 26.57197 -1.9594593 71.489998
-1.4530174 4.3400936 -2.0377505 71.489998
-1.5426348 4.6077766 -2.0296373 71.489998
-19.692448 58.8204 -1.4401369 71.489998
-1.6501385 4.928885 -2.0296638 71.489998
-1.7660803 5.2751975 -2.0247593 71.489998
-19.762272 59.028965 1.4452434 71.489998
-1.8966194 5.665112 -2.0186577 71.489998
-2.0456455 6.1102457 -2.0106544 71.489998
-2.2253137 6.6469054 -2.0099475 71.489998
-2.4311681 7.2617836 -2.0047386 71.489998
-2.6813993 8.0092125 -2.0012543 71.489998
-2.964345 8.8543568 -1.984725 71.489998
-3.3182306 9.911397 -1.9692777 71.489998
-3.7543619 11.332234 -1.961334 71.669998
-4.3575139 13.152799 -1.94731 71.669998
-5.2976418 15.990498 -1.9699159 71.669998
-6.5813608 19.865299 -1.9524027 71.669998
-8.7930412 26.541075 -1.9551344 71.669998
-1.4382262 4.3411684 -2.0361238 71.669998
-1.5293123 4.6161041 -2.031179 71.669998
-19.505674 58.876282 -1.4399977 71.669998
-1.6323023 4.926971 -2.0267537 71.669998
-1.7459528 5.2700157 -2.0206549 71.669998
-1.8776208 5.6674452 -2.0173774 71.669998
-2.0258391 6.11483 -2.0100589 71.669998
-2.2056301 6.6575136 -2.0110502 71.669998
-2.4071257 7.2657123 -2.0037255 71.669998
-2.6568365 8.0194435 -2.0017154 71.669998
-2.9365137 8.8636265 -1.984725 71.669998
-3.2864587 9.9199066 -1.9689074 71.669998
-3.7170315 11.332072 -1.9593885 71.839996
-4.317235 13.161906 -1.9467534 71.839996
-5.242744 15.983496 -1.9671283 71.839996
-6.5174251 19.869602 -1.9509164 71.839996
-8.7049255 26.538612 -1.9530418 71.839996
-1.4259088 4.3471527 -2.036937 71.839996
-1.5161844 4.622375 -2.0319498 71.839996
-1.6176765 4.9317923 -2.0267537 71.839996
-1.7303087 5.2751727 -2.0206549 71.839996
-1.8602064 5.6711907 -2.016737 71.839996
-2.0094724 6.126256 -2.0118461 71.839996
-2.1864662 6.6658554 -2.0116014 71.839996
-2.3861604 7.2746606 -2.0042319 71.839996
-2.631211 8.0217438 -2.0003321 71.839996
-2.9102018 8.8723001 -1.984725 71.839996
-3.2594614 9.9370842 -1.9703887 71.839996
-3.6850677 11.354957 -1.961334 72.019997
-4.2709732 13.160334 -1.9445266 72.019997
-5.1906652 15.994219 -1.9664314 72.019997
-6.4451356 19.859674 -1.9479439 72.019997
-8.6128874 26.539261 -1.9510885 72.019997
-1.4145008 4.358562 -2.0401909 72.019997
-1.4999464 4.6218491 -2.0296373 72.019997
-1.603325 4.9403939 -2.0282087 72.019997
-1.7143079 5.2823706 -2.0213389 72.019997
-1.8429656 5.6788092 -2.0173774 72.019997
-1.9890375 6.1289067 -2.0106544 72.019997
-2.1649206 6.6708627 -2.0110502 72.019997
-2.3632946 7.2821212 -2.0042319 72.019997
-2.6047955 8.026268 -1.9994099 72.019997
-2.8792949 8.8720951 -1.9826459 72.019997
-3.2251937 9.9379282 -1.9685371 72.019997
-3.6521363 11.361445 -1.9606855 72.18
-4.2348123 13.174095 -1.9448049 72.18
-5.1417251 15.995414 -1.9648052 72.18
-6.3799014 19.847261 -1.9449713 72.18
-8.5356894 26.553711 -1.9503911 72.18
-1.4017648 4.3607559 -2.0393775 72.18
-1.4881635 4.6295338 -2.031179 72.18
-1.5878122 4.9395313 -2.0260262 72.18
-1.69955 5.287137 -2.0213389 72.18
-1.82768 5.6857371 -2.0180175 72.18
-1.9736675 6.1398902 -2.0124419 72.18
-2.1462836 6.6768823 -2.0110502 72.18
-2.3411736 7.2831664 -2.0027125 72.18
-2.5829675 8.0353642 -1.999871 72.18
-2.8545082 8.8801012 -1.9826459 72.18
-3.1998351 9.95438 -1.9700183 72.18
-3.6136231 11.357186 -1.9580916 72.349998
-4.1957054 13.186602 -1.9448049 72.349998
-5.0894251 15.995456 -1.9629468 72.349998
-6.3131366 19.841434 -1.9425561 72.349998
-8.452631 26.565611 -1.9494144 72.349998
-1.389374 4.3666368 -2.0401909 72.349998
-1.4721826 4.6268945 -2.0280955 72.349998
-1.5737143 4.9459958 -2.0267537 72.349998
-1.6849949 5.2957382 -2.0227072 72.349998
-1.8125255 5.6965518 -2.0199382 72.349998
-1.9525471 6.1366224 -2.0094631 72.349998
-2.1247149 6.6777253 -2.0093963 72.349998
-2.3195539 7.2900805 -2.0027125 72.349998
-2.5591147 8.0429926 -1.999871 72.349998
-2.8287411 8.8903952 -1.9830617 72.349998
-3.168498 9.9582119 -1.9689074 72.349998
-3.5854526 11.378528 -1.960037 72.510002
-4.1564841 13.190711 -1.9436915 72.510002
-5.0369763 15.984975 -1.9599268 72.510002
-6.2541132 19.847591 -1.9414414 72.510002
-8.3724174 26.570084 -1.9480193 72.510002
-1.3766255 4.3687568 -2.0393775 72.510002
-1.4636933 4.6450686 -2.0342624 72.510002
-1.561576 4.9557018 -2.0289361 72.510002
-1.6679406 5.2932529 -2.0199709 72.510002
-1.7949024 5.6961694 -2.0180175 72.510002
-1.9359765 6.1438718 -2.0100589 72.510002
-2.1060588 6.6836324 -2.0093963 72.510002
-2.2980239 7.2928391 -2.0016994 72.510002
-2.53372 8.0408268 -1.9975654 72.510002
-2.8039033 8.8982601 -1.9830617 72.510002
-3.1394958 9.9632721 -1.9681668 72.510002
-3.5447659 11.380933 -1.9584159 72.699997
-4.1109524 13.19875 -1.9428564 72.699997
-4.9803963 15.990211 -1.958533 72.699997
-6.189446 19.872025 -1.941813 72.699997
-8.2777348 26.576748 -1.9464847 72.699997
-1.362674 4.3750424 -2.0401909 72.699997
-1.4460864 4.642849 -2.031179 72.699997
-1.5429176 4.9537382 -2.0260262 72.699997
-18.373604 58.990852 0 72.699997
-1.652055 5.3041382 -2.0220232 72.699997
-22.309593 71.627861 1.7417845 72.699997
-1.7760034 5.7020903 -2.0180175 72.699997
-1.9167275 6.153904 -2.0112503 72.699997
-2.0844553 6.6924152 -2.0099475 72.699997
-2.2755535 7.3059611 -2.0032189 72.699997
-2.5087779 8.054759 -1.9989488 72.699997
-2.7732167 8.9037743 -1.9822301 72.699997
-3.1041014 9.9661217 -1.9666855 72.699997
-3.5129707 11.390788 -1.9584159 72.860001
-4.0746622 13.21207 -1.9431348 72.860001
-4.9310403 15.988871 -1.9566747 72.860001
-6.1356897 19.894939 -1.9423704 72.860001
-8.1923151 26.563536 -1.9438339 72.860001
-1.3488358 4.3735929 -2.0377505 72.860001
-1.4314839 4.6415787 -2.0288663 72.860001
-1.5312743 4.9651484 -2.0289361 72.860001
-18.203495 59.024731 0 72.860001
-1.6372367 5.3087306 -2.0220232 72.860001
-1.7606316 5.708838 -2.0186577 72.860001
-1.8984098 6.1555834 -2.0100589 72.860001
-2.0663249 6.700047 -2.0104988 72.860001
-2.2528617 7.3048916 -2.001193 72.860001
-2.4857016 8.0598736 -1.9984877 72.860001
-2.748342 8.9114838 -1.9822301 72.860001
-3.0745208 9.9691172 -1.9655746 72.860001
-3.478055 11.411814 -1.960037 73.050003
-4.0314045 13.227404 -1.9434131 73.050003
-4.8716216 15.984233 -1.9541193 73.050003
-6.0621347 19.890413 -1.9399551 73.050003
-8.1030188 26.58674 -1.9435549 73.050003
-1.3343251 4.3780417 -2.0377505 73.050003
-1.417698 4.6515961 -2.031179 73.050003
-1.5148009 4.9701991 -2.0289361 73.050003
-17.994833 59.042679 0 73.050003
-1.6196233 5.3141308 -2.0220232 73.050003
-1.7411383 5.7128329 -2.0180175 73.050003
-1.8796566 6.1673236 -2.0118461 73.050003
-2.0440955 6.7068624 -2.0104988 73.050003
-2.2291896 7.3141732 -2.0016994 73.050003
-2.4595277 8.0699339 -1.9989488 73.050003
-2.7210567 8.9280338 -1.9838934 73.050003
-3.0420182 9.9811373 -1.9659449 73.050003
-3.4396222 11.406967 -1.9574431 73.220001
-3.9915686 13.237411 -1.9431348 73.220001
-4.8201599 15.985304 -1.9524932 73.220001
-5.992744 19.873995 -1.9366111 73.220001
-8.0033636 26.541899 -1.9385324 73.220001
-1.3213294 4.3819814 -2.0377505 73.220001
-1.4028248 4.6522479 -2.0296373 73.220001
-1.4984338 4.9693208 -2.0267537 73.220001
-17.821304 59.101559 0 73.220001
-1.6038488 5.318913 -2.0220232 73.220001
-1.7225393 5.7125316 -2.0160968 73.220001
-1.859696 6.1673899 -2.0100589 73.220001
-2.0241868 6.7128978 -2.0104988 73.220001
-2.2074783 7.320755 -2.0016994 73.220001
-2.4344492 8.0734692 -1.9980266 73.220001
-2.6934252 8.9323215 -1.9830617 73.220001
-3.0112555 9.9863558 -1.9652044 73.220001
-3.4046335 11.41334 -1.9567946 73.389999
-3.9505765 13.243503 -1.9422998 73.389999
-4.7670307 15.980499 -1.9501703 73.389999
