# .PCD v0.7 - Point Cloud Data file format
VERSION 0.7
FIELDS x y z intensity
SIZE 4 4 4 4
TYPE F F F F
COUNT 1 1 1 1
WIDTH 1144
HEIGHT 1
VIEWPOINT 0 0 0 1 0 0 0
POINTS 1144
DATA ascii
-1.3288467 -19.24472 -2.2558789 273.95001
-1.6749204 -24.256655 -2.2684209 273.95001
-0.34820241 -5.0427623 -2.111347 273.95001
-0.37345362 -5.4084573 -2.116961 273.95001
-0.40055901 -5.8010049 -2.1164207 273.95001
-0.43202779 -6.2567444 -2.1191745 273.95001
-0.46780831 -6.7749276 -2.119081 273.95001
-0.51119822 -7.4033122 -2.1279204 273.95001
-0.56204396 -8.1396742 -2.1359227 273.95001
-0.62431747 -9.0415363 -2.147429 273.95001
-0.69617623 -10.082214 -2.1481435 273.95001
-0.78878051 -11.423335 -2.1573923 273.95001
-0.95698744 -13.253352 -2.1831148 274.13
-1.1299751 -15.649064 -2.2050586 274.13
-1.3894421 -19.242432 -2.2561111 274.13
-1.7499692 -24.235384 -2.2669349 274.13
-2.4388251 -33.775372 -2.3679533 274.13
-0.36444169 -5.0471659 -2.1136594 274.13
-0.38923535 -5.3905339 -2.1104138 274.13
-0.41864604 -5.7978435 -2.1157367 274.13
-0.45195469 -6.2591362 -2.120455 274.13
-0.48895255 -6.7715206 -2.1184852 274.13
-0.53445387 -7.4016695 -2.1279204 274.13
-0.58747333 -8.1359386 -2.1354163 274.13
-0.65271914 -9.0395298 -2.147429 274.13
-0.72841048 -10.087782 -2.149807 274.13
-0.82480562 -11.422761 -2.1577625 274.13
-0.99556679 -13.240614 -2.1814938 274.29999
-1.1768472 -15.651567 -2.2058938 274.29999
-1.4468273 -19.242186 -2.2565758 274.29999
-1.8235116 -24.251928 -2.2689784 274.29999
-0.37913859 -5.0423818 -2.1121178 274.29999
-0.40620545 -5.4023595 -2.1155062 274.29999
-0.43570581 -5.7947016 -2.1150525 274.29999
-0.47052389 -6.2577677 -2.120455 274.29999
-0.50875556 -6.7662325 -2.1172936 274.29999
-0.55670094 -7.4038854 -2.1290228 274.29999
-0.61103028 -8.126442 -2.1333902 274.29999
-0.67968297 -9.0394945 -2.1478901 274.29999
-0.75819165 -10.083626 -2.1493912 274.29999
-0.85810447 -11.412424 -2.1562812 274.29999
-1.0348481 -13.237602 -2.1814938 274.47
-1.2235899 -15.651956 -2.2064502 274.47
-1.5048424 -19.249691 -2.2579696 274.47
-1.8949949 -24.240456 -2.2684209 274.47
-0.39424178 -5.0430746 -2.1128886 274.47
-0.42237794 -5.402988 -2.1162336 274.47
-0.45333654 -5.7990046 -2.1171048 274.47
-0.48864597 -6.2506771 -2.1185343 274.47
-0.5288291 -6.7646928 -2.1172936 274.47
-0.57851642 -7.4002848 -2.1284716 274.47
-0.63544077 -8.1284513 -2.1344032 274.47
-0.70589399 -9.0296774 -2.1460457 274.47
-0.78825945 -10.083282 -2.149807 274.47
-0.89242154 -11.415706 -2.1573923 274.47
-1.0764301 -13.234285 -2.1814938 274.64999
-1.2724347 -15.644087 -2.2058938 274.64999
-1.5640213 -19.229029 -2.2561111 274.64999
-1.9693632 -24.212549 -2.2663774 274.64999
-2.7441239 -33.73793 -2.3669767 274.64999
-0.41008309 -5.041811 -2.1128886 274.64999
-0.43934983 -5.4016342 -2.1162336 274.64999
-0.47109529 -5.7919321 -2.1150525 274.64999
-0.50843418 -6.2509995 -2.1191745 274.64999
-0.55100703 -6.774416 -2.1208682 274.64999
-0.60254145 -7.4080114 -2.131228 274.64999
-0.66113073 -8.1283436 -2.1349096 274.64999
-0.73441577 -9.0293541 -2.1465068 274.64999
-0.81993306 -10.080756 -2.149807 274.64999
-0.92843992 -11.414805 -2.1577625 274.64999
-1.115858 -13.233 -2.181818 274.82001
-1.3191788 -15.644189 -2.2064502 274.82001
-1.6212349 -19.226284 -2.2563434 274.82001
-2.0410271 -24.204615 -2.2661917 274.82001
-0.4250406 -5.0405722 -2.1128886 274.82001
-0.45506176 -5.396594 -2.1147785 274.82001
-0.48875195 -5.7961273 -2.1171048 274.82001
-0.52681983 -6.2475753 -2.1185343 274.82001
-0.57110471 -6.7727513 -2.1208682 274.82001
-0.62435728 -7.4042754 -2.1306767 274.82001
-0.68524504 -8.1263456 -2.1349096 274.82001
-0.76120311 -9.0271358 -2.1465068 274.82001
-0.84967524 -10.076329 -2.1493912 274.82001
-0.96213901 -11.410042 -2.1573923 274.82001
-1.1547728 -13.225699 -2.1811695 274.98999
-1.6782732 -19.22139 -2.2563434 274.98999
-2.1140471 -24.212339 -2.2674921 274.98999
-0.43967333 -5.0356116 -2.111347 274.98999
-0.47139585 -5.398932 -2.1162336 274.98999
-0.50594723 -5.7946515 -2.1171048 274.98999
-0.54535443 -6.2459846 -2.1185343 274.98999
-0.59086514 -6.7672229 -2.1196766 274.98999
-0.64582175 -7.3966446 -2.1290228 274.98999
-0.70935339 -8.1242771 -2.1349096 274.98999
-0.78798378 -9.0248375 -2.1465068 274.98999
-0.87939835 -10.071815 -2.1489751 274.98999
-0.99667287 -11.414968 -2.1588733 274.98999
-1.1940091 -13.222215 -2.1811695 275.16
-1.4114552 -15.630168 -2.2056153 275.16
-1.7351182 -19.214346 -2.2561111 275.16
-2.1848025 -24.194061 -2.2663774 275.16
-3.0452156 -33.722103 -2.3676744 275.16
-0.45477831 -5.0361228 -2.1121178 275.16
-0.48758024 -5.3993649 -2.116961 275.16
-0.52296901 -5.7912531 -2.1164207 275.16
-0.56405461 -6.2462263 -2.1191745 275.16
-0.61076957 -6.7635384 -2.119081 275.16
-0.66776514 -7.3946958 -2.1290228 275.16
-0.73310739 -8.1182823 -2.1338968 275.16
-0.81493253 -9.0243979 -2.1469679 275.16
-0.9091022 -10.067213 -2.1485593 275.16
-1.030007 -11.406089 -2.1577625 275.16
-1.2336016 -13.222544 -2.181818 275.32999
-1.4592963 -15.641687 -2.2078421 275.32999
-1.7921205 -19.209114 -2.2561111 275.32999
-2.256948 -24.191437 -2.2667489 275.32999
-3.1428483 -33.687092 -2.3658605 275.32999
-0.46971878 -5.0347514 -2.1121178 275.32999
-0.50238693 -5.3849096 -2.1118686 275.32999
-0.54032427 -5.7915473 -2.1171048 275.32999
-0.58276099 -6.2464118 -2.1198146 275.32999
-0.6308347 -6.7616963 -2.119081 275.32999
-0.68934548 -7.3888535 -2.1279204 275.32999
-0.75719154 -8.1160717 -2.1338968 275.32999
-0.84170485 -9.0219402 -2.1469679 275.32999
-0.93878645 -10.062524 -2.1481435 275.32999
-1.0638449 -11.402983 -2.1577625 275.32999
-1.2747197 -13.23847 -2.1850603 275.5
-1.5055099 -15.635317 -2.2075636 275.5
-1.8502495 -19.215576 -2.2575049 275.5
-2.3281429 -24.178688 -2.2661917 275.5
-3.2498612 -33.751099 -2.3710225 275.5
-0.48483199 -5.0351725 -2.1128886 275.5
-0.51925486 -5.3926678 -2.1155062 275.5
-0.55750573 -5.7899184 -2.1171048 275.5
-0.60111028 -6.2427692 -2.1191745 275.5
-0.6512602 -6.7635961 -2.1202724 275.5
-0.71126562 -7.386776 -2.1279204 275.5
-0.7814545 -8.115715 -2.1344032 275.5
-0.86809671 -9.0155287 -2.1460457 275.5
-0.96957588 -10.06943 -2.1502228 275.5
-1.0978619 -11.401732 -2.1581328 275.5
-1.3093477 -13.211291 -2.1811695 275.66
-1.5495566 -15.634994 -2.2081203 275.66
-1.9027268 -19.198473 -2.2561111 275.66
-2.3948677 -24.164165 -2.2654486 275.66
-0.49889094 -5.0337992 -2.1128886 275.66
-0.53394449 -5.3874888 -2.1140511 275.66
-0.57348669 -5.786469 -2.1164207 275.66
-0.61816728 -6.2372952 -2.1178939 275.66
-0.6692037 -6.7522511 -2.1172936 275.66
-0.73170096 -7.3828478 -2.1273692 275.66
-0.80373317 -8.1096506 -2.1333902 275.66
-0.89326936 -9.0130692 -2.1460457 275.66
-0.99691945 -10.058897 -2.1485593 275.66
-1.1291157 -11.392755 -2.157022 275.66
-1.3527485 -13.20295 -2.180521 275.85001
-1.6013956 -15.629769 -2.2081203 275.85001
-1.9667857 -19.196011 -2.2565758 275.85001
-2.473362 -24.140244 -2.2639623 275.85001
-3.4449921 -33.623444 -2.3634889 275.85001
-0.51576895 -5.0339527 -2.1136594 275.85001
-0.55123746 -5.3801284 -2.1118686 275.85001
-0.5924806 -5.7826657 -2.1157367 275.85001
-0.63923377 -6.2389808 -2.1191745 275.85001
-0.69275886 -6.7613907 -2.1208682 275.85001
-0.75637531 -7.3822932 -2.1279204 275.85001
-0.83101571 -8.1107903 -2.1344032 275.85001
-0.92354959 -9.0139294 -2.1469679 275.85001
-1.0304699 -10.057482 -2.1489751 275.85001
-1.1668893 -11.388947 -2.157022 275.85001
-1.3927443 -13.206729 -2.181818 276.01999
-1.6471398 -15.61904 -2.2072854 276.01999
-2.0222743 -19.176262 -2.2549496 276.01999
-2.5495713 -24.176367 -2.2680495 276.01999
-3.5572939 -33.732121 -2.3718596 276.01999
-0.53050917 -5.0305653 -2.1128886 276.01999
-0.56797969 -5.3858805 -2.1147785 276.01999
-0.60963547 -5.7808824 -2.1157367 276.01999
-0.65774232 -6.2370567 -2.1191745 276.01999
-0.71221656 -6.7536092 -2.119081 276.01999
-0.77827567 -7.3800163 -2.1279204 276.01999
-0.85507721 -8.1082888 -2.1344032 276.01999
-0.94988215 -9.0072794 -2.1460457 276.01999
-1.0603064 -10.054379 -2.1489751 276.01999
-1.2015003 -11.393253 -2.1585031 276.01999
-1.4334129 -13.216273 -2.1840875 276.19
-1.6928345 -15.608177 -2.2064502 276.19
-2.0806618 -19.184002 -2.2565758 276.19
-2.6195748 -24.152857 -2.2665632 276.19
-3.6476827 -33.63216 -2.3655815 276.19
-0.54523379 -5.0271344 -2.1121178 276.19
-0.58375651 -5.382319 -2.1140511 276.19
-0.62637973 -5.775311 -2.1143684 276.19
-0.67624515 -6.2350774 -2.1191745 276.19
-0.73266345 -6.7552629 -2.1202724 276.19
-0.80016911 -7.3776746 -2.1279204 276.19
-0.87933981 -8.1076393 -2.1349096 276.19
-0.97639322 -9.0024862 -2.1455846 276.19
-1.0897118 -10.047299 -2.1481435 276.19
-1.2348756 -11.385731 -2.1577625 276.19
-1.4744879 -13.207782 -2.183439 276.37
-1.7427394 -15.610656 -2.2075636 276.37
-2.1398177 -19.1675 -2.2554142 276.37
-2.6930099 -24.12274 -2.2645197 276.37
-3.7544298 -33.630447 -2.3662791 276.37
-0.56163853 -5.0308986 -2.1144302 276.37
-0.60107607 -5.3841619 -2.1155062 276.37
-0.64472878 -5.7751827 -2.1150525 276.37
-0.69604003 -6.2348056 -2.1198146 276.37
-0.75345844 -6.7491326 -2.119081 276.37
-0.82312948 -7.3732138 -2.1273692 276.37
-0.90437698 -8.1009912 -2.1338968 276.37
-1.0053183 -9.0051765 -2.1469679 276.37
-1.1217049 -10.047715 -2.1489751 276.37
-1.2708567 -11.383748 -2.1581328 276.37
-1.5141193 -13.207271 -2.1840875 276.54001
-1.7890495 -15.605416 -2.2075636 276.54001
-2.1957743 -19.153172 -2.2544851 276.54001
-2.7652519 -24.120577 -2.2650769 276.54001
-0.57572228 -5.0218763 -2.111347 276.54001
-0.61577541 -5.3712492 -2.1111412 276.54001
-0.66250336 -5.7788458 -2.1171048 276.54001
-0.71410441 -6.2289476 -2.1185343 276.54001
-0.77391505 -6.7506609 -2.1202724 276.54001
-0.84522158 -7.3726492 -2.1279204 276.54001
-0.92884988 -8.1021166 -2.1349096 276.54001
-1.031811 -9.0002213 -2.1465068 276.54001
-1.1517349 -10.046287 -2.1493912 276.54001
-1.3044035 -11.377975 -2.1577625 276.54001
-1.5523769 -13.19488 -2.1827905 276.70999
-1.8348809 -15.596106 -2.2070069 276.70999
-2.2528253 -19.148544 -2.2547174 276.70999
-2.8365743 -24.110289 -2.2648911 276.70999
-3.9513655 -33.585781 -2.3647444 276.70999
-0.59061992 -5.0201459 -2.111347 276.70999
-0.63301557 -5.3805003 -2.1155062 276.70999
-0.67942703 -5.7749882 -2.1164207 276.70999
-0.73258287 -6.2268019 -2.1185343 276.70999
-0.79327202 -6.7426467 -2.1184852 276.70999
-0.86731756 -7.3720183 -2.1284716 276.70999
-0.95265913 -8.0974035 -2.1344032 276.70999
-1.0580559 -8.9932547 -2.1455846 276.70999
-1.1817664 -10.044767 -2.149807 276.70999
-1.3383865 -11.376006 -2.1581328 276.70999
-1.5924656 -13.198052 -2.1840875 276.88
-1.8811474 -15.590592 -2.2070069 276.88
-2.3108199 -19.151638 -2.2558789 276.88
-2.9073827 -24.095835 -2.2643337 276.88
-0.60595453 -5.0220361 -2.1128886 276.88
-0.64897698 -5.3785982 -2.1155062 276.88
-0.69655877 -5.7729468 -2.1164207 276.88
-0.75105494 -6.2246008 -2.1185343 276.88
-0.81373173 -6.7440543 -2.1196766 276.88
-0.89033842 -7.3789558 -2.131228 276.88
-0.9764486 -8.0926208 -2.1338968 276.88
-1.0849679 -8.9920073 -2.1460457 276.88
-1.2117989 -10.043159 -2.1502228 276.88
-1.3721339 -11.371985 -2.1581328 276.88
-1.6324652 -13.181233 -2.182142 277.06
-1.9291435 -15.576743 -2.2058938 277.06
-2.3719518 -19.152168 -2.256808 277.06
-2.9862492 -24.112274 -2.2667489 277.06
-0.62150186 -5.0182762 -2.1121178 277.06
-0.66587114 -5.376533 -2.1155062 277.06
-0.71399856 -5.7651343 -2.1143684 277.06
-0.77083921 -6.2240911 -2.1191745 277.06
-0.83491474 -6.7414646 -2.1196766 277.06
-0.9118616 -7.3627667 -2.1273692 277.06
-1.0018674 -8.0895128 -2.1338968 277.06
-1.1127332 -8.9846916 -2.1451235 277.06
-1.2435849 -10.041245 -2.1506386 277.06
-1.4073701 -11.363717 -2.1573923 277.06
-1.6692678 -13.176623 -2.182142 277.22
-1.9733813 -15.57719 -2.2067287 277.22
-2.4234281 -19.129705 -2.2549496 277.22
-3.0515695 -24.088036 -2.2652628 277.22
-4.2531667 -33.573032 -2.3664186 277.22
-0.63528115 -5.0146899 -2.111347 277.22
-0.68064851 -5.3728042 -2.1147785 277.22
-0.73056746 -5.7668471 -2.1157367 277.22
-0.78821713 -6.2219138 -2.1191745 277.22
-0.85349727 -6.7372127 -2.119081 277.22
-0.93266034 -7.3620987 -2.1279204 277.22
-1.02494 -8.0905228 -2.1349096 277.22
-1.1378189 -8.9815493 -2.1451235 277.22
-1.2708828 -10.03191 -2.1493912 277.22
-1.439592 -11.363643 -2.1581328 277.22
-1.7114176 -13.177185 -2.1831148 277.39999
-2.0217984 -15.566985 -2.206172 277.39999
-2.4842813 -19.127907 -2.2556465 277.39999
-3.1277421 -24.082281 -2.2656343 277.39999
-4.3640146 -33.601051 -2.3693483 277.39999
-0.65198284 -5.01999 -2.1144302 277.39999
-0.69752425 -5.3706393 -2.1147785 277.39999
-0.74892294 -5.7663875 -2.1164207 277.39999
-0.80751592 -6.2175279 -2.1185343 277.39999
-0.87392092 -6.7288179 -2.1172936 277.39999
-0.95553684 -7.3572259 -2.1273692 277.39999
-1.0501028 -8.0853443 -2.1344032 277.39999
-1.1662803 -8.9798603 -2.1455846 277.39999
-1.3011328 -10.018167 -2.1473119 277.39999
-1.4757911 -11.362962 -2.1588733 277.39999
-1.7507675 -13.174006 -2.183439 277.57001
-2.0684996 -15.564845 -2.2067287 277.57001
-2.5399771 -19.112576 -2.2547174 277.57001
-3.1962962 -24.05118 -2.2635906 277.57001
-4.4579096 -33.544445 -2.3662791 277.57001
-0.66711771 -5.0198627 -2.1152012 277.57001
-0.71321076 -5.3666992 -2.1140511 277.57001
-0.76479089 -5.7548246 -2.1130004 277.57001
-0.8259601 -6.2151046 -2.1185343 277.57001
-0.89488786 -6.7337661 -2.1196766 277.57001
-0.97786844 -7.35817 -2.1284716 277.57001
-1.0743428 -8.0841112 -2.1349096 277.57001
-1.1929189 -8.9763603 -2.1455846 277.57001
-1.3303361 -10.010385 -2.1464803 277.57001
-1.5089813 -11.354637 -2.1581328 277.57001
-1.789582 -13.166798 -2.1831148 277.73999
-2.1136053 -15.550789 -2.2056153 277.73999
-2.596674 -19.104954 -2.2547174 277.73999
-3.2697887 -24.057377 -2.2650769 277.73999
-0.68126333 -5.0123754 -2.1128886 277.73999
-0.7281273 -5.3571754 -2.1111412 277.73999
-0.78236866 -5.7562547 -2.1143684 277.73999
-0.84465218 -6.2145042 -2.1191745 277.73999
-0.91383487 -6.7235136 -2.1172936 277.73999
-0.99943733 -7.3533311 -2.1279204 277.73999
-1.0978029 -8.0770531 -2.1338968 277.73999
-1.2200712 -8.9766378 -2.1465068 277.73999
-1.3616124 -10.018024 -2.1489751 277.73999
-1.5429292 -11.352057 -2.1585031 277.73999
-1.8263435 -13.161749 -2.1831148 277.89999
-2.1583838 -15.554635 -2.2070069 277.89999
-2.6502879 -19.099596 -2.2549496 277.89999
-3.3350408 -24.034344 -2.2637765 277.89999
-4.6680384 -33.640739 -2.374929 277.89999
-0.69601882 -5.0159373 -2.1152012 277.89999
-0.7443648 -5.3643479 -2.1147785 277.89999
-0.79895669 -5.7577705 -2.1157367 277.89999
-0.8614822 -6.2083678 -2.1178939 277.89999
-0.93286932 -6.722827 -2.1178894 277.89999
-1.021289 -7.360033 -2.1306767 277.89999
-1.1203541 -8.0739565 -2.1338968 277.89999
-1.2451339 -8.973196 -2.1465068 277.89999
-1.3893138 -10.012245 -2.1485593 277.89999
-1.5746241 -11.347704 -2.1585031 277.89999
-1.8662964 -13.146176 -2.1814938 278.07999
-2.2044559 -15.528169 -2.2042236 278.07999
-2.7088819 -19.081343 -2.2537882 278.07999
-3.4116499 -24.031635 -2.2645197 278.07999
-4.7658486 -33.570599 -2.3710225 278.07999
-0.7109952 -5.0082445 -2.1128886 278.07999
-0.76068997 -5.358294 -2.1133237 278.07999
-0.816513 -5.7515106 -2.1143684 278.07999
-0.88257998 -6.2168865 -2.1217353 278.07999
-0.95398504 -6.7198629 -2.1178894 278.07999
-1.0435954 -7.351078 -2.1290228 278.07999
-1.1457134 -8.0703964 -2.1338968 278.07999
-1.2716765 -8.9576797 -2.1437399 278.07999
-1.4210362 -10.009768 -2.1489751 278.07999
-1.6108186 -11.346593 -2.1592438 278.07999
-1.9044441 -13.134722 -2.180521 278.25
-2.2499506 -15.517639 -2.2036669 278.25
-2.7649152 -19.069288 -2.2533236 278.25
-3.4832239 -24.023376 -2.2647054 278.25
-4.8763123 -33.63134 -2.3763239 278.25
-0.72558701 -5.0042863 -2.1121178 278.25
-0.77711964 -5.3597007 -2.1147785 278.25
-0.83465314 -5.7565026 -2.1171048 278.25
-0.89966255 -6.2048645 -2.1185343 278.25
-0.97337115 -6.7132239 -2.116698 278.25
-1.0648502 -7.3441439 -2.1279204 278.25
-1.1696538 -8.0669613 -2.1338968 278.25
-1.2996452 -8.9634972 -2.1460457 278.25
-1.4510103 -10.007443 -2.1493912 278.25
-1.6444775 -11.341763 -2.1592438 278.25
-1.9439851 -13.132918 -2.1811695 278.42001
-2.2971425 -15.518732 -2.2047803 278.42001
-2.822937 -19.070826 -2.2544851 278.42001
-3.5533209 -24.005056 -2.2639623 278.42001
-4.9871783 -33.691723 -2.3816254 278.42001
-0.74124247 -5.0075884 -2.1144302 278.42001
-0.79274595 -5.3555284 -2.1140511 278.42001
-0.85035336 -5.7447052 -2.1136844 278.42001
-0.91806877 -6.202168 -2.1185343 278.42001
-0.99384451 -6.7140837 -2.1178894 278.42001
-1.0869175 -7.342854 -2.1284716 278.42001
-1.1938671 -8.0653696 -2.1344032 278.42001
-1.3248098 -8.949976 -2.1437399 278.42001
-1.4804101 -10.00116 -2.1489751 278.42001
-1.6766829 -11.327113 -2.1573923 278.42001
-1.986119 -13.1326 -2.182142 278.60001
-2.344996 -15.505564 -2.2039452 278.60001
-2.8825388 -19.0599 -2.2542527 278.60001
-3.6269307 -23.981962 -2.2628474 278.60001
-5.076292 -33.565414 -2.3738129 278.60001
-0.75669461 -5.0034103 -2.1136594 278.60001
-0.81040263 -5.3585377 -2.1162336 278.60001
-0.86895871 -5.7457218 -2.1150525 278.60001
-0.93698221 -6.1955061 -2.1172538 278.60001
-1.0152179 -6.7128158 -2.1184852 278.60001
-1.1096928 -7.337502 -2.1279204 278.60001
-1.2180419 -8.0539274 -2.1323771 278.60001
-1.3555396 -8.9630871 -2.1478901 278.60001
-1.5121149 -9.9983931 -2.1493912 278.60001
-1.7137293 -11.331507 -2.1592438 278.60001
-2.0244737 -13.122748 -2.1814938 278.76999
-2.3912935 -15.500495 -2.2042236 278.76999
-2.9375637 -19.041447 -2.2530913 278.76999
-3.6995888 -23.980936 -2.2637765 278.76999
-5.1913738 -33.650768 -2.380928 278.76999
-0.77266222 -5.0084386 -2.1167428 278.76999
-0.82544601 -5.3505859 -2.1140511 278.76999
-0.8862893 -5.7449756 -2.1157367 278.76999
-0.95593828 -6.196444 -2.1185343 278.76999
-1.0342575 -6.7041135 -2.116698 278.76999
-1.1308725 -7.3303771 -2.1268179 278.76999
-1.242228 -8.0521898 -2.1328838 278.76999
-1.3803473 -8.9474859 -2.1451235 278.76999
-1.5411774 -9.989996 -2.1485593 278.76999
-1.7452452 -11.312775 -2.1566515 278.76999
-2.0604987 -13.113145 -2.1808453 278.92999
-2.4336474 -15.487887 -2.2033885 278.92999
-2.9916508 -19.039057 -2.2537882 278.92999
-3.7649961 -23.960674 -2.2628474 278.92999
-5.2933764 -33.687386 -2.3845553 278.92999
-0.78578597 -5.000792 -2.1144302 278.92999
-0.83980602 -5.3445792 -2.1125963 278.92999
-0.90145367 -5.7369084 -2.1136844 278.92999
-0.97294414 -6.1918788 -2.1178939 278.92999
-1.053864 -6.7068572 -2.1184852 278.92999
-1.1531289 -7.3385859 -2.1301255 278.92999
-1.2644088 -8.0467777 -2.1323771 278.92999
-1.4062341 -8.9493637 -2.1465068 278.92999
-1.5690687 -9.9856529 -2.1485593 278.92999
-1.7780499 -11.315623 -2.1581328 278.92999
-2.1010597 -13.10271 -2.1801968 279.10999
-2.4819784 -15.47821 -2.2031102 279.10999
-3.0498765 -19.019756 -2.2526267 279.10999
-3.8396213 -23.944796 -2.262476 279.10999
-0.80178469 -5.0001211 -2.1152012 279.10999
-0.85659236 -5.3419147 -2.1125963 279.10999
-0.92066246 -5.7414708 -2.1164207 279.10999
-0.99209166 -6.1869206 -2.1172538 279.10999
-1.0752312 -6.7053986 -2.119081 279.10999
-1.1743517 -7.3235373 -2.1268179 279.10999
-1.2909075 -8.0504074 -2.1344032 279.10999
-1.4324937 -8.9333725 -2.1437399 279.10999
-1.601361 -9.9864693 -2.149807 279.10999
-1.813279 -11.308042 -2.1577625 279.10999
-2.1405632 -13.100313 -2.1808453 279.28
-2.5285311 -15.474687 -2.2036669 279.28
-3.1059752 -19.008663 -2.2523944 279.28
-3.9093654 -23.925436 -2.2617328 279.28
-5.5283384 -33.833603 -2.3972509 279.28
-0.81631923 -4.9958987 -2.1144302 279.28
-0.8721379 -5.3375111 -2.1118686 279.28
-0.93708754 -5.7350044 -2.1150525 279.28
-1.0116664 -6.1914296 -2.1198146 279.28
-1.094506 -6.6984105 -2.1178894 279.28
-1.1960758 -7.3200207 -2.1268179 279.28
-1.3141638 -8.0427227 -2.1333902 279.28
-1.4605623 -8.9386864 -2.1460457 279.28
-1.6306689 -9.979744 -2.1493912 279.28
-1.8455549 -11.294852 -2.1562812 279.28
-2.1817086 -13.093524 -2.1808453 279.45999
-2.5787611 -15.476435 -2.2050586 279.45999
-3.1646979 -18.992933 -2.2516975 279.45999
-3.9838555 -23.909109 -2.2613614 279.45999
-0.83201027 -4.9933095 -2.1144302 279.45999
-0.88982046 -5.3402576 -2.1140511 279.45999
-0.95540881 -5.7338858 -2.1157367 279.45999
-1.0295552 -6.1788759 -2.1166136 279.45999
-1.1152304 -6.6930556 -2.1172936 279.45999
-1.2193824 -7.3181233 -2.1273692 279.45999
-1.3394243 -8.0385551 -2.1333902 279.45999
-1.4889567 -8.9359732 -2.1465068 279.45999
-1.6607269 -9.9668522 -2.1477277 279.45999
-1.8826448 -11.298693 -2.1581328 279.45999
-2.2189236 -13.091272 -2.1814938 279.62
-2.6216385 -15.467221 -2.2047803 279.62
-3.2163959 -18.976189 -2.2507682 279.62
-4.0549331 -23.923414 -2.2637765 279.62
-5.7440162 -33.888718 -2.4035292 279.62
-0.84471732 -4.9836884 -2.111347 279.62
-0.90441847 -5.3359151 -2.1133237 279.62
-0.97110301 -5.7293425 -2.1150525 279.62
-1.0474392 -6.1797128 -2.1178939 279.62
-1.1348737 -6.6955624 -2.119081 279.62
-1.24142 -7.3241673 -2.1301255 279.62
-1.3621902 -8.0366907 -2.1338968 279.62
-1.5116282 -8.9183493 -2.1432788 279.62
-1.6878992 -9.9583187 -2.1468961 279.62
-1.9141892 -11.293391 -2.1581328 279.62
-2.261651 -13.079952 -2.1808453 279.81
-2.6725776 -15.456491 -2.2045019 279.81
-3.2793055 -18.965418 -2.2507682 279.81
-4.1335649 -23.90591 -2.2634048 279.81
-5.864182 -33.914703 -2.4067378 279.81
-0.86249691 -4.9881339 -2.1144302 279.81
-0.92242545 -5.3347225 -2.1140511 279.81
-0.98945647 -5.7223868 -2.1136844 279.81
-1.0685718 -6.1799397 -2.1191745 279.81
-1.1557697 -6.684237 -2.116698 279.81
-1.2647184 -7.3143272 -2.1284716 279.81
-1.3881741 -8.0283165 -2.1328838 279.81
-1.542852 -8.9228754 -2.1455846 279.81
-1.7222463 -9.9603777 -2.1485593 279.81
-1.9512941 -11.285045 -2.1577625 279.81
-2.2985101 -13.075529 -2.1811695 279.97
-2.715044 -15.445065 -2.2039452 279.97
-3.3308783 -18.94836 -2.2498391 279.97
-4.1961694 -23.870739 -2.2611754 279.97
-5.9633574 -33.923737 -2.4085515 279.97
-0.93667412 -5.3284559 -2.1125963 279.97
-1.0054325 -5.7196016 -2.1136844 279.97
-1.0845131 -6.169467 -2.1166136 279.97
-1.1754227 -6.6866245 -2.1184852 279.97
-1.2854717 -7.3126602 -2.1290228 279.97
-1.4109229 -8.0263138 -2.1333902 279.97
-1.5684373 -8.9223661 -2.1465068 279.97
-1.7500541 -9.9555292 -2.1485593 279.97
-1.9834808 -11.283422 -2.1585031 279.97
-2.3376431 -13.070595 -2.1814938 280.14001
-2.7598126 -15.431093 -2.2031102 280.14001
-3.3860354 -18.932528 -2.2491422 280.14001
-4.2694306 -23.871906 -2.262476 280.14001
-0.95280778 -5.3274875 -2.1133237 280.14001
-1.0237219 -5.7239933 -2.1164207 280.14001
-1.1038141 -6.1718173 -2.1185343 280.14001
-1.1942487 -6.6774693 -2.116698 280.14001
-1.308517 -7.3163838 -2.131228 280.14001
-1.4347312 -8.0220928 -2.1333902 280.14001
-1.5949036 -8.9176731 -2.1465068 280.14001
-1.7785518 -9.9445152 -2.1473119 280.14001
-2.0172966 -11.279423 -2.1588733 280.14001
-2.3730755 -13.05819 -2.180521 280.29999
-2.8039558 -15.429173 -2.2039452 280.29999
-3.4406676 -18.932772 -2.2503037 280.29999
-4.3332286 -23.844217 -2.2609897 280.29999
-6.1779075 -33.994831 -2.4160852 280.29999
-0.9673481 -5.3229728 -2.1125963 280.29999
-1.0397023 -5.7211123 -2.1164207 280.29999
-1.1203672 -6.1649823 -2.1172538 280.29999
-1.2149392 -6.685379 -2.1202724 280.29999
-1.3268806 -7.301352 -2.1279204 280.29999
-1.4581653 -8.0237656 -2.1349096 280.29999
-1.6198001 -8.9131842 -2.1465068 280.29999
-1.8080641 -9.9491339 -2.1493912 280.29999
-2.0473812 -11.26601 -2.1573923 280.29999
-2.4144461 -13.052611 -2.1808453 280.48001
-2.8516936 -15.416392 -2.2033885 280.48001
-3.4994071 -18.917961 -2.2498391 280.48001
-4.4113755 -23.848108 -2.2626617 280.48001
-6.2955618 -34.034111 -2.4202707 280.48001
-0.98474365 -5.3235712 -2.1140511 280.48001
-1.056645 -5.7122736 -2.1143684 280.48001
-1.1397295 -6.1614323 -2.1172538 280.48001
-1.2338524 -6.6702647 -2.116698 280.48001
-1.3501616 -7.2990379 -2.1284716 280.48001
-1.4823097 -8.0134373 -2.1333902 280.48001
-1.6470857 -8.9042244 -2.1455846 280.48001
-1.8378879 -9.93571 -2.1477277 280.48001
-2.0841942 -11.267254 -2.1588733 280.48001
-2.4535282 -13.04733 -2.1811695 280.64999
-2.8974223 -15.407864 -2.2033885 280.64999
-3.5536866 -18.897734 -2.2486775 280.64999
-4.4795389 -23.821215 -2.2613614 280.64999
-6.4131074 -34.103516 -2.4265487 280.64999
-1.0005347 -5.3206263 -2.1140511 280.64999
-1.0739363 -5.7109604 -2.1150525 280.64999
-1.158356 -6.1598859 -2.1178939 280.64999
-1.2529323 -6.6628222 -2.1155064 280.64999
-1.370391 -7.2874422 -2.1262665 280.64999
-1.5064371 -8.0109053 -2.1338968 280.64999
-1.6734978 -8.8992987 -2.1455846 280.64999
-1.8684442 -9.9359808 -2.1489751 280.64999
-2.1157994 -11.251362 -2.157022 280.64999
-2.4945052 -13.039557 -2.1811695 280.82999
-2.9465575 -15.402575 -2.2039452 280.82999
-3.6134112 -18.888428 -2.2489097 280.82999
-4.5565982 -23.81876 -2.262476 280.82999
-6.536335 -34.167461 -2.4325478 280.82999
-1.0172449 -5.3174567 -2.1140511 280.82999
-1.0911663 -5.7038665 -2.1136844 280.82999
-1.17699 -6.1524944 -2.1166136 280.82999
-1.2727817 -6.6532273 -2.1137192 280.82999
-1.3932785 -7.2831011 -2.1262665 280.82999
-1.5319601 -8.0080338 -2.1344032 280.82999
-1.7007161 -8.8901739 -2.1446621 280.82999
-1.8989146 -9.926219 -2.1481435 280.82999
-2.1522441 -11.250451 -2.1581328 280.82999
-2.5328069 -13.030162 -2.1808453 281
-2.9903553 -15.384044 -2.2025535 281
-3.6686802 -18.873724 -2.2484453 281
-4.6314292 -23.826639 -2.2645197 281
-6.643393 -34.177296 -2.4346404 281
-1.0333731 -5.3162436 -2.1147785 281
-1.1084437 -5.7024488 -2.1143684 281
-1.1959628 -6.1526947 -2.1178939 281
-1.2947024 -6.6606665 -2.1172936 281
-1.4163491 -7.2864838 -2.1284716 281
-1.5557137 -8.0034533 -2.1344032 281
-1.7270863 -8.8850889 -2.1446621 281
-1.9291044 -9.9243822 -2.1489751 281
-2.1859903 -11.245945 -2.1585031 281
-2.5714569 -13.022589 -2.1808453 281.17001
-3.036371 -15.377047 -2.2028317 281.17001
-3.7238939 -18.858858 -2.2479806 281.17001
-4.6936169 -23.769812 -2.2604322 281.17001
-6.7436104 -34.151562 -2.434222 281.17001
-1.0484203 -5.3094988 -2.1133237 281.17001
-1.1253583 -5.6991348 -2.1143684 281.17001
-1.214947 -6.1528368 -2.1191745 281.17001
-1.3163085 -6.6661611 -2.1202724 281.17001
-1.4394519 -7.289794 -2.1306767 281.17001
-1.5787039 -7.9950056 -2.1333902 281.17001
-1.7541952 -8.8837433 -2.1455846 281.17001
-1.9593 -9.9224529 -2.149807 281.17001
-2.2197287 -11.241338 -2.1588733 281.17001
-2.6066496 -13.009552 -2.1798725 281.32999
-3.0769653 -15.356856 -2.2011619 281.32999
-3.7757626 -18.84449 -2.2475159 281.32999
-4.7619324 -23.766375 -2.2613614 281.32999
-6.8436565 -34.156071 -2.4358962 281.32999
-1.0632432 -5.3065505 -2.1133237 281.32999
-1.1420074 -5.6996555 -2.1157367 281.32999
-1.2321242 -6.1494203 -2.1191745 281.32999
-1.3345437 -6.6605868 -2.1196766 281.32999
-1.4579147 -7.2763205 -2.1279204 281.32999
-1.6021643 -7.9962573 -2.1349096 281.32999
-1.7774671 -8.8711777 -2.1437399 281.32999
-1.9850794 -9.9073524 -2.1477277 281.32999
-2.2514977 -11.237022 -2.1592438 281.32999
-2.6497765 -13.000836 -2.1798725 281.51999
-3.126687 -15.340746 -2.2003267 281.51999
-3.8350587 -18.816294 -2.2456577 281.51999
-4.8566265 -23.828503 -2.2687926 281.51999
-6.9995184 -34.342365 -2.450824 281.51999
-11.70586 -57.433517 -2.7334223 281.51999
-1.0804625 -5.3011699 -2.1125963 281.51999
-1.1601511 -5.6921539 -2.1143684 281.51999
-1.2544016 -6.1545835 -2.1223757 281.51999
-1.3539547 -6.6430297 -2.1155064 281.51999
-1.480884 -7.2657943 -2.1262665 281.51999
-1.6282856 -7.9890046 -2.1344032 281.51999
-1.8072639 -8.8671417 -2.144201 281.51999
-2.0183132 -9.9026318 -2.1481435 281.51999
-2.2871788 -11.221791 -2.1577625 281.51999
-2.6856718 -12.991454 -2.1795483 281.67999
-3.1691134 -15.330015 -2.2000484 281.67999
-3.8895993 -18.815237 -2.246819 281.67999
-4.9166989 -23.783646 -2.26582 281.67999
-7.0925655 -34.30901 -2.4498475 281.67999
-1.095639 -5.2999563 -2.1133237 281.67999
-1.1764226 -5.6907325 -2.1150525 281.67999
-1.2711999 -6.1492009 -2.1217353 281.67999
-1.3736597 -6.6448317 -2.1172936 281.67999
-1.5015574 -7.2635136 -2.1268179 281.67999
-1.649022 -7.9768472 -2.1323771 281.67999
-1.8328065 -8.8658714 -2.1451235 281.67999
-2.0463548 -9.8988724 -2.1485593 281.67999
-2.318109 -11.213435 -2.1573923 281.67999
-2.7264724 -12.982952 -2.1795483 281.85999
-3.2172582 -15.319983 -2.2000484 281.85999
-3.9474652 -18.797092 -2.2461221 281.85999
-4.9987597 -23.803162 -2.2691641 281.85999
-7.2101564 -34.33342 -2.4531956 281.85999
-1.111518 -5.2928419 -2.1118686 281.85999
-1.1946809 -5.688848 -2.1157367 281.85999
-1.2901225 -6.1433229 -2.1210952 281.85999
-1.3949207 -6.6423521 -2.1178894 281.85999
-1.5247641 -7.2606416 -2.1273692 281.85999
-1.6756644 -7.9792013 -2.1344032 281.85999
-1.8602504 -8.8581657 -2.1446621 281.85999
-2.0770407 -9.890481 -2.1481435 281.85999
-2.3533256 -11.206098 -2.1573923 281.85999
-2.7653928 -12.976736 -2.1798725 282.03
-3.2622864 -15.308434 -2.19977 282.03
-4.0019779 -18.779469 -2.2454252 282.03
-5.0801539 -23.838863 -2.2739947 282.03
-7.3311219 -34.401634 -2.4596133 282.03
-1.1272173 -5.2895207 -2.1118686 282.03
-1.2119466 -5.6871166 -2.1164207 282.03
-1.3079495 -6.1376147 -2.120455 282.03
-1.4150207 -6.6400514 -2.1184852 282.03
-1.5463001 -7.2560859 -2.1273692 282.03
-1.6977187 -7.9666252 -2.1323771 282.03
-1.8877417 -8.8583174 -2.1460457 282.03
-2.1071928 -9.8881006 -2.1489751 282.03
-2.3877933 -11.204832 -2.1585031 282.03
-2.8022151 -12.960758 -2.1785755 282.20001
-3.3072746 -15.296751 -2.1994917 282.20001
-4.0585194 -18.771395 -2.2458899 282.20001
-5.1584377 -23.858719 -2.2773387 282.20001
-7.4302101 -34.366081 -2.4586368 282.20001
-1.142513 -5.2843318 -2.1111412 282.20001
-1.2268294 -5.6743107 -2.1130004 282.20001
-1.3253536 -6.130003 -2.1191745 282.20001
-1.4343123 -6.6339574 -2.1178894 282.20001
-1.5674162 -7.2495866 -2.1268179 282.20001
-1.7225753 -7.9672265 -2.1338968 282.20001
-1.9119602 -8.8431664 -2.1437399 282.20001
-2.1369352 -9.8837175 -2.1493912 282.20001
-2.4206128 -11.195778 -2.1581328 282.20001
-2.8410807 -12.954314 -2.1788998 282.37
-3.3526464 -15.286871 -2.1994917 282.37
-4.1158996 -18.767033 -2.246819 282.37
-5.2343245 -23.866652 -2.2795682 282.37
-1.1593841 -5.2863779 -2.1133237 282.37
-1.2444652 -5.6743174 -2.1143684 282.37
-1.3443476 -6.129745 -2.120455 282.37
-1.4535804 -6.6278076 -2.1172936 282.37
-1.5885073 -7.2430263 -2.1262665 282.37
-1.7457924 -7.9601903 -2.1333902 282.37
-1.9386069 -8.8393555 -2.144201 282.37
-2.1670897 -9.881155 -2.1502228 282.37
-2.4538207 -11.188546 -2.1581328 282.37
-2.8821926 -12.947251 -2.179224 282.54999
-3.3997941 -15.272396 -2.198935 282.54999
-4.1722474 -18.742376 -2.2454252 282.54999
-5.3162007 -23.881189 -2.2825406 282.54999
-1.1747717 -5.2772541 -2.1111412 282.54999
-1.2626939 -5.672214 -2.1150525 282.54999
-1.3619512 -6.1180935 -2.1178939 282.54999
-1.4748099 -6.625072 -2.1178894 282.54999
-1.6120896 -7.2417536 -2.1273692 282.54999
-1.7716323 -7.9584436 -2.1344032 282.54999
-1.9680585 -8.8408203 -2.1460457 282.54999
-2.195996 -9.8647509 -2.1481435 282.54999
-2.4893854 -11.1827 -2.1585031 282.54999
-2.9227679 -12.948268 -2.1808453 282.72
-3.4464016 -15.268038 -2.19977 282.72
-4.2287135 -18.733789 -2.2458899 282.72
-5.3909807 -23.882793 -2.2842126 282.72
-1.1920651 -5.2810144 -2.1140511 282.72
-1.2782766 -5.6629429 -2.1130004 282.72
-1.3796808 -6.1121774 -2.1172538 282.72
-1.4944603 -6.620667 -2.1178894 282.72
-1.6327225 -7.2331877 -2.1262665 282.72
-1.7935336 -7.9456029 -2.1323771 282.72
-1.9934239 -8.8311453 -2.1451235 282.72
-2.2261171 -9.8620081 -2.1489751 282.72
-2.5216885 -11.171431 -2.1577625 282.72
-2.9576511 -12.924149 -2.1782513 282.89001
-3.4916875 -15.257745 -2.19977 282.89001
-4.2825069 -18.713415 -2.2449608 282.89001
-5.4680376 -23.893869 -2.2868137 282.89001
-1.2081445 -5.2792702 -2.1147785 282.89001
-1.2950733 -5.6591253 -2.1130004 282.89001
-1.3982326 -6.1099038 -2.1178939 282.89001
-1.5153754 -6.6217871 -2.1196766 282.89001
-1.6541766 -7.2283115 -2.1262665 282.89001
-1.8171008 -7.9402466 -2.1323771 282.89001
-2.0178812 -8.8176031 -2.1432788 282.89001
-2.2558048 -9.8572664 -2.1493912 282.89001
-2.5552621 -11.165815 -2.1581328 282.89001
-2.9950929 -12.911471 -2.1776028 283.06
-3.5347049 -15.237671 -2.1983783 283.06
-4.3416028 -18.716106 -2.246819 283.06
-5.5515079 -23.931856 -2.2920156 283.06
-1.2233821 -5.2738476 -2.1140511 283.06
-1.3122832 -5.6570888 -2.1136844 283.06
-1.4163548 -6.1057286 -2.1178939 283.06
-1.5341531 -6.6135421 -2.1184852 283.06
-1.6777883 -7.2327356 -2.1290228 283.06
-1.8410891 -7.9367046 -2.1328838 283.06
-2.0471129 -8.8248482 -2.1465068 283.06
-2.2854841 -9.8524361 -2.149807 283.06
-2.5866041 -11.150526 -2.1566515 283.06
-3.0365505 -12.915976 -2.1798725 283.23001
-3.5789938 -15.22326 -2.1978216 283.23001
-4.3971152 -18.703142 -2.246819 283.23001
-5.6306939 -23.950171 -2.2953596 283.23001
-1.2385982 -5.2683811 -2.1133237 283.23001
-1.3294924 -5.6549997 -2.1143684 283.23001
-1.4353319 -6.1051879 -2.1191745 283.23001
-1.5524583 -6.6033854 -2.116698 283.23001
-1.6970409 -7.2183681 -2.1262665 283.23001
-1.865958 -7.9368577 -2.1344032 283.23001
-2.072397 -8.8149462 -2.1455846 283.23001
-2.3138113 -9.8418026 -2.1489751 283.23001
-2.6205764 -11.146629 -2.1573923 283.23001
-3.0771122 -12.906373 -2.1798725 283.41
-3.6258826 -15.208088 -2.1972649 283.41
-4.4535475 -18.679575 -2.2456577 283.41
-5.7096024 -23.947861 -2.2968459 283.41
-8.2509642 -34.607128 -2.4877949 283.41
-1.2547112 -5.2626514 -2.1125963 283.41
-1.3463798 -5.6471386 -2.1130004 283.41
-1.4540653 -6.0988059 -2.1185343 283.41
-1.5731957 -6.5984755 -2.116698 283.41
-1.7192638 -7.2111311 -2.1257153 283.41
-1.889537 -7.9253101 -2.1328838 283.41
-2.1000795 -8.8083916 -2.1455846 283.41
-2.344265 -9.8325825 -2.1485593 283.41
-2.6560376 -11.140253 -2.1577625 283.41
-3.1131415 -12.897729 -2.1798725 283.57001
-3.6692669 -15.201754 -2.1978216 283.57001
-4.5047612 -18.663202 -2.245193 283.57001
-5.7843981 -23.964731 -2.3000042 283.57001
-1.2694023 -5.2591271 -2.1125963 283.57001
-1.3625853 -5.6451836 -2.1136844 283.57001
-1.4706461 -6.0928793 -2.1178939 283.57001
-1.5920639 -6.5959125 -2.1172936 283.57001
-1.7398454 -7.2081709 -2.1262665 283.57001
-1.9125692 -7.9237642 -2.1338968 283.57001
-2.1264956 -8.8100605 -2.147429 283.57001
-2.3730907 -9.8317022 -2.149807 283.57001
-2.6866753 -11.130882 -2.1573923 283.57001
-3.1522384 -12.882134 -2.1788998 283.75
-3.7165358 -15.188228 -2.1975434 283.75
-4.5676203 -18.666325 -2.2472837 283.75
-5.8729095 -24.000601 -2.3052063 283.75
-1.2850324 -5.2514939 -2.1111412 283.75
-1.3798667 -5.6390495 -2.1130004 283.75
-1.4902306 -6.0900698 -2.1185343 283.75
-1.6132315 -6.5927329 -2.1178894 283.75
-1.7624819 -7.2026691 -2.1262665 283.75
-1.9383727 -7.9214754 -2.1349096 283.75
-2.1509247 -8.7901039 -2.144201 283.75
-2.403501 -9.822298 -2.1493912 283.75
-2.7220979 -11.124296 -2.1577625 283.75
-3.1904464 -12.872725 -2.1788998 283.92001
-3.7606308 -15.173289 -2.1969867 283.92001
-5.9498434 -24.006264 -2.3074358 283.92001
-1.3015046 -5.2512746 -2.1125963 283.92001
-1.3956877 -5.6312823 -2.1116323 283.92001
-1.5073819 -6.081943 -2.1172538 283.92001
-1.6323261 -6.5860643 -2.1172936 283.92001
-1.7847699 -7.2011404 -2.1273692 283.92001
-1.9600058 -7.9081774 -2.1328838 283.92001
-2.179805 -8.7950172 -2.1469679 283.92001
-2.4321632 -9.8132248 -2.1489751 283.92001
-2.753201 -11.10854 -2.1562812 283.92001
-3.2300677 -12.868944 -2.1798725 284.09
-3.8046699 -15.158222 -2.19643 284.09
-4.6696029 -18.60421 -2.2431023 284.09
-6.0302563 -24.025202 -2.3109655 284.09
-1.1546943 -4.6004286 -2.1117766 284.09
-1.3170797 -5.2473903 -2.1125963 284.09
-1.41422 -5.634408 -2.1143684 284.09
-1.5258821 -6.0792818 -2.1178939 284.09
-1.6523249 -6.5830441 -2.1178894 284.09
-1.8051921 -7.1920838 -2.1262665 284.09
-1.9848742 -7.9079566 -2.1344032 284.09
-2.2054169 -8.786623 -2.1465068 284.09
-2.4622214 -9.8097601 -2.149807 284.09
-2.7871056 -11.104135 -2.157022 284.09
-3.2690213 -12.852996 -2.1788998 284.26999
-3.852272 -15.146194 -2.19643 284.26999
-4.7343922 -18.614475 -2.2461221 284.26999
-6.1150298 -24.042807 -2.3144956 284.26999
-1.1695915 -4.5985494 -2.1125901 284.26999
-1.3335583 -5.2432265 -2.1125963 284.26999
-1.430061 -5.6226516 -2.1116323 284.26999
-1.5449731 -6.0744581 -2.1178939 284.26999
-1.6725274 -6.5759702 -2.1172936 284.26999
-1.8282517 -7.1882401 -2.1268179 284.26999
-2.0097079 -7.9016824 -2.1344032 284.26999
-2.2310913 -8.7721071 -2.1446621 284.26999
-2.4925454 -9.8000803 -2.1493912 284.26999
-2.8234298 -11.101038 -2.1581328 284.26999
-3.3039174 -12.839994 -2.1782513 284.42999
-3.8906047 -15.120034 -2.1942031 284.42999
-4.7942753 -18.631964 -2.2498391 284.42999
-6.1895895 -24.054565 -2.3172822 284.42999
-1.1833392 -4.598804 -2.114217 284.42999
-1.3477308 -5.2376776 -2.1118686 284.42999
-1.4462252 -5.6204562 -2.1123164 284.42999
-1.5600415 -6.0627799 -2.1153331 284.42999
-1.691836 -6.5749717 -2.1184852 284.42999
-1.8478388 -7.1812449 -2.1262665 284.42999
-2.0312836 -7.8941655 -2.1338968 284.42999
-2.2546089 -8.7620726 -2.1437399 284.42999
-2.5189276 -9.7892923 -2.1485593 284.42999
-2.8524597 -11.085497 -2.1566515 284.42999
-3.3402565 -12.814273 -2.1756573 284.60999
-3.9390855 -15.111569 -2.1947598 284.60999
-4.8623056 -18.653332 -2.2542527 284.60999
-6.2756767 -24.075468 -2.3211837 284.60999
-1.1940941 -4.5809197 -2.1077092 284.60999
-1.3651185 -5.2370234 -2.1133237 284.60999
-1.4634012 -5.6140666 -2.1116323 284.60999
-1.5800364 -6.0615158 -2.1166136 284.60999
-1.709594 -6.5585394 -2.1149106 284.60999
-1.8703902 -7.1754041 -2.1262665 284.60999
-2.0565619 -7.8896174 -2.1344032 284.60999
-2.2826154 -8.7568302 -2.144201 284.60999
-2.5516429 -9.7889032 -2.1502228 284.60999
-2.8877673 -11.078382 -2.157022 284.60999
-3.3787661 -12.806214 -2.1759815 284.78
-3.9844103 -15.10173 -2.1950381 284.78
-4.9100285 -18.610012 -2.2507682 284.78
-6.3491144 -24.064444 -2.3219268 284.78
-1.2076806 -4.5773563 -2.1077092 284.78
-1.37875 -5.2257447 -2.1104138 284.78
-1.4795725 -5.6078825 -2.1109483 284.78
-1.598981 -6.0604653 -2.1178939 284.78
-11.744156 -44.512753 2.1468439 284.78
-1.7324554 -6.5663605 -2.119081 284.78
-1.8926528 -7.1735411 -2.1273692 284.78
-2.0794683 -7.8816099 -2.1338968 284.78
-2.3110697 -8.7594271 -2.1465068 284.78
-2.5791786 -9.7756147 -2.1489751 284.78
-2.9206247 -11.069765 -2.157022 284.78
-3.4150233 -12.798636 -2.1763058 284.94
-4.0270772 -15.092459 -2.1953166 284.94
-4.9717083 -18.632694 -2.255182 284.94
-6.4352856 -24.117809 -2.3288009 284.94
-1.2157478 -4.556313 -2.0995746 284.94
-1.3938179 -5.2236738 -2.1111412 284.94
-1.4961959 -5.6073608 -2.1123164 284.94
-1.6144334 -6.0504847 -2.1159732 284.94
-1.7488165 -6.5541182 -2.116698 284.94
-11.776244 -44.134357 3.194149 284.94
-1.9111906 -7.1626554 -2.1257153 284.94
-2.1029661 -7.8813801 -2.1354163 284.94
-2.3355217 -8.7529392 -2.1465068 284.94
-2.6054585 -9.7645941 -2.1481435 284.94
-2.9525394 -11.065364 -2.1577625 284.94
-3.4541848 -12.784034 -2.1756573 285.12
-4.0760217 -15.085468 -2.1961515 285.12
-5.0307384 -18.618902 -2.2554142 285.12
-6.5172548 -24.120541 -2.3310301 285.12
-1.2314857 -4.5577626 -2.102015 285.12
-11.984641 -44.355488 -2.1426513 285.12
-11.997563 -44.403313 -1.0678822 285.12
-1.4097357 -5.2174711 -2.1104138 285.12
-11.999753 -44.411415 0 285.12
-1.5138046 -5.6026325 -2.1123164 285.12
-12.009559 -44.447708 1.0689499 285.12
-1.6334335 -6.0453825 -2.1159732 285.12
-12.013824 -44.463493 2.1478686 285.12
-1.7674062 -6.5412192 -2.114315 285.12
-1.9341848 -7.1584716 -2.1262665 285.12
-2.1262016 -7.8691311 -2.1338968 285.12
-2.3609776 -8.7380438 -2.1446621 285.12
-2.6376529 -9.7620258 -2.1493912 285.12
-2.9857495 -11.050342 -2.1566515 285.12
-3.4931414 -12.777536 -2.1763058 285.29001
-4.1207628 -15.073309 -2.1961515 285.29001
-5.0959125 -18.640301 -2.2598281 285.29001
-6.5977206 -24.133753 -2.3341885 285.29001
-1.2498215 -4.571713 -2.1101496 285.29001
-15.114949 -55.28886 -2.6729569 285.29001
-1.4266839 -5.2186565 -2.1125963 285.29001
-1.5299256 -5.5963035 -2.1116323 285.29001
-1.6508636 -6.038682 -2.1153331 285.29001
-1.7888205 -6.543313 -2.116698 285.29001
-1.9564298 -7.1564102 -2.1273692 285.29001
-2.1495404 -7.8627882 -2.1338968 285.29001
-2.3868935 -8.7309999 -2.1446621 285.29001
-2.6660898 -9.7522697 -2.1489751 285.29001
-3.0169685 -11.035747 -2.1555407 285.29001
-3.5327396 -12.764597 -2.1759815 285.47
-4.1670403 -15.056471 -2.1955948 285.47
-5.1539173 -18.622284 -2.2595956 285.47
-6.6814737 -24.141695 -2.3369753 285.47
-1.4420779 -5.2105575 -2.1111412 285.47
-1.5495045 -5.5987148 -2.1143684 285.47
-1.670332 -6.0352917 -2.1159732 285.47
-1.809368 -6.5376611 -2.116698 285.47
-1.9804411 -7.155787 -2.1290228 285.47
-2.1747475 -7.857861 -2.1344032 285.47
-2.4169066 -8.7328367 -2.1469679 285.47
-2.6961923 -9.7419605 -2.1485593 285.47
-3.0537205 -11.033792 -2.157022 285.47
-3.5711293 -12.75596 -2.1763058 285.64001
-4.2100935 -15.03832 -2.1947598 285.64001
-5.2161102 -18.631779 -2.2626157 285.64001
-6.7654219 -24.165869 -2.3412483 285.64001
-1.4560248 -5.2008739 -2.1089587 285.64001
-1.565096 -5.5904727 -2.1130004 285.64001
-1.6887425 -6.0321341 -2.1166136 285.64001
-1.8287576 -6.5322638 -2.116698 285.64001
-2.0001092 -7.1443257 -2.1273692 285.64001
-2.197531 -7.8495107 -2.1338968 285.64001
-2.442282 -8.723753 -2.1465068 285.64001
-2.7240307 -9.7301502 -2.1477277 285.64001
-3.0848553 -11.019004 -2.155911 285.64001
-3.6090336 -12.737082 -2.1750088 285.82001
-4.2573171 -15.025019 -2.1947598 285.82001
-5.2816577 -18.640146 -2.2656355 285.82001
-6.8521647 -24.182814 -2.344964 285.82001
-1.4764197 -5.2106133 -2.1147785 285.82001
-1.5831636 -5.5873365 -2.1136844 285.82001
-1.7071681 -6.0249758 -2.1159732 285.82001
-1.8497908 -6.5283232 -2.1172936 285.82001
-2.023068 -7.1398563 -2.1279204 285.82001
-2.2227077 -7.8444295 -2.1344032 285.82001
-2.4675543 -8.7085476 -2.1446621 285.82001
-2.755652 -9.7253084 -2.1485593 285.82001
-3.1194572 -11.009258 -2.155911 285.82001
-3.6435015 -12.72316 -2.1743603 285.98001
-4.3003488 -15.016879 -2.1953166 285.98001
-5.3380651 -18.640602 -2.267494 285.98001
-6.9267964 -24.188473 -2.3473792 285.98001
-15.04926 -52.552235 -2.5492315 285.98001
-1.4873744 -5.193933 -2.1096864 285.98001
-1.5982429 -5.5810871 -2.1130004 285.98001
-1.7234646 -6.0183635 -2.1153331 285.98001
-1.8685397 -6.5249677 -2.1178894 285.98001
-2.042469 -7.1323309 -2.1273692 285.98001
-2.244072 -7.8363323 -2.1338968 285.98001
-2.4945424 -8.7109776 -2.1469679 285.98001
-2.7811837 -9.7119331 -2.1473119 285.98001
-3.1507297 -11.002394 -2.1562812 285.98001
-3.6823337 -12.716084 -2.1750088 286.14999
-4.3426819 -14.996445 -2.1942031 286.14999
-5.3972173 -18.638037 -2.26912 286.14999
-7.0051808 -24.190767 -2.3496087 286.14999
-15.18178 -52.426754 -2.5453184 286.14999
-1.5017422 -5.1859183 -2.1082313 286.14999
-1.6116587 -5.5654893 -2.1088963 286.14999
-1.742368 -6.0168633 -2.1166136 286.14999
-1.8868294 -6.515727 -2.116698 286.14999
-2.063622 -7.1262393 -2.1273692 286.14999
-2.267313 -7.8296394 -2.1338968 286.14999
-2.5192945 -8.6997995 -2.1460457 286.14999
-2.8099873 -9.703639 -2.1473119 286.14999
-3.1806271 -10.983558 -2.1544297 286.14999
-3.7189376 -12.70954 -2.1756573 286.31
-4.3839869 -14.982358 -2.1939247 286.31
-5.4559379 -18.645771 -2.2719076 286.31
-7.074944 -24.178755 -2.3503518 286.31
-15.329246 -52.387989 -2.5455048 286.31
-1.5198805 -5.1942205 -2.1133237 286.31
-1.6293054 -5.568182 -2.1116323 286.31
-1.7591634 -6.0119743 -2.1166136 286.31
-1.9055535 -6.5122652 -2.1172936 286.31
-2.084054 -7.1222939 -2.1279204 286.31
-2.2902553 -7.8269911 -2.1349096 286.31
-2.5430326 -8.6908627 -2.1455846 286.31
-2.837074 -9.6957541 -2.1473119 286.31
-3.2140462 -10.984064 -2.1562812 286.31
-3.7577271 -12.69401 -2.1750088 286.48999
-4.432158 -14.972309 -2.1944814 286.48999
-5.5223823 -18.655205 -2.2751598 286.48999
-7.165 -24.204145 -2.3549964 286.48999
-16.099392 -54.385494 -2.6450069 286.48999
-1.44212 -4.8716378 -2.1221387 286.48999
-1.5361911 -5.1894202 -2.1133237 286.48999
-1.6467901 -5.563036 -2.1116323 286.48999
-1.7775041 -6.0046015 -2.1159732 286.48999
-1.9260029 -6.5062466 -2.1172936 286.48999
-2.1069648 -7.1175551 -2.1284716 286.48999
-2.3142841 -7.8179021 -2.1344032 286.48999
-2.5703232 -8.6828299 -2.1455846 286.48999
-2.8680754 -9.6886692 -2.1477277 286.48999
-3.2468643 -10.96826 -2.1551704 286.48999
-3.7958896 -12.67647 -2.174036 286.67001
-4.480309 -14.962106 -2.1950381 286.67001
-5.5860906 -18.654892 -2.2772505 286.67001
-7.253571 -24.223486 -2.3590837 286.67001
-1.4436533 -4.8211169 -2.1020968 286.67001
-1.5519521 -5.1827836 -2.1125963 286.67001
-1.6658762 -5.5632358 -2.1136844 286.67001
-1.7963593 -5.9989877 -2.1159732 286.67001
-1.9464333 -6.5001636 -2.1172936 286.67001
-2.1287632 -7.1090593 -2.1279204 286.67001
-2.3382783 -7.8087397 -2.1338968 286.67001
-2.5981467 -8.6765766 -2.1460457 286.67001
-2.8973765 -9.6758633 -2.1468961 286.67001
-3.281306 -10.958005 -2.1551704 286.67001
-3.8329883 -12.671488 -2.1750088 286.82999
-4.5260878 -14.962807 -2.1969867 286.82999
-5.6450644 -18.662035 -2.2800381 286.82999
-7.3373313 -24.256504 -2.3642855 286.82999
-15.345943 -50.732201 -2.4717166 286.82999
-1.4571108 -4.8170667 -2.1020968 286.82999
-1.5631827 -5.1677303 -2.1082313 286.82999
-1.6824934 -5.56216 -2.1150525 286.82999
-1.8131045 -5.9939475 -2.1159732 286.82999
-1.9640248 -6.4928756 -2.116698 286.82999
-2.1480505 -7.1012468 -2.1273692 286.82999
-2.3611956 -7.8058834 -2.1349096 286.82999
-2.6201122 -8.6618366 -2.144201 286.82999
-2.9255183 -9.6714792 -2.1477277 286.82999
-3.3107555 -10.945037 -2.1544297 286.82999
-3.8722007 -12.657496 -2.1746845 287.01001
-4.5724931 -14.94662 -2.1967082 287.01001
-5.7083139 -18.659405 -2.2818966 287.01001
-7.423985 -24.267611 -2.3676295 287.01001
-14.811515 -48.416058 -2.3611276 287.01001
-1.4765558 -4.8265834 -2.1082635 287.01001
-1.5821348 -5.1717014 -2.1118686 287.01001
-1.6983098 -5.5514555 -2.1130004 287.01001
-1.8308176 -5.9845982 -2.1146929 287.01001
-1.9849716 -6.4884992 -2.1172936 287.01001
-2.1709116 -7.0963016 -2.1279204 287.01001
-2.3857069 -7.7984271 -2.1349096 287.01001
-2.6495883 -8.6610069 -2.1460457 287.01001
-2.9558876 -9.662241 -2.1477277 287.01001
-3.3462739 -10.93834 -2.1551704 287.01001
-3.9091561 -12.644066 -2.1743603 287.17999
-4.6103854 -14.912173 -2.1936464 287.17999
-5.7689333 -18.659468 -2.2839873 287.17999
-7.5047784 -24.274014 -2.3704164 287.17999
-14.744434 -47.690498 -2.327867 287.17999
-1.4908701 -4.8221812 -2.1082635 287.17999
-1.5974727 -5.1669846 -2.1118686 287.17999
-1.7142186 -5.5445967 -2.1123164 287.17999
-1.8508048 -5.9863806 -2.1172538 287.17999
-2.0047786 -6.484405 -2.1178894 287.17999
-2.1936607 -7.0953393 -2.1295743 287.17999
-2.4088347 -7.7913141 -2.1349096 287.17999
-2.6718254 -8.6419516 -2.1432788 287.17999
-2.9845428 -9.6534281 -2.1477277 287.17999
-3.3787138 -10.928364 -2.1551704 287.17999
-3.9478316 -12.636179 -2.1750088 287.35001
-4.653429 -14.894648 -2.1930897 287.35001
-5.8361192 -18.680189 -2.2886333 287.35001
-7.5928011 -24.302959 -2.3754325 287.35001
-14.861444 -47.568356 -2.3240471 287.35001
-1.5040705 -4.8142133 -2.1067219 287.35001
-1.6127963 -5.1622219 -2.1118686 287.35001
-1.7329041 -5.5466614 -2.1150525 287.35001
-1.8668635 -5.9754372 -2.1153331 287.35001
-2.0234399 -6.4766059 -2.1172936 287.35001
-2.2135568 -7.0851293 -2.1284716 287.35001
-2.4307873 -7.7804394 -2.1338968 287.35001
-2.700937 -8.6451311 -2.1460457 287.35001
-3.0125887 -9.642663 -2.1473119 287.35001
-3.411124 -10.918291 -2.1551704 287.35001
-3.9835241 -12.618764 -2.174036 287.51999
-4.7053523 -14.905328 -2.1967082 287.51999
-5.8957047 -18.676052 -2.2902594 287.51999
-7.664876 -24.280325 -2.3754325 287.51999
-11.327518 -35.882622 -2.6312141 287.51999
-14.994096 -47.497379 -2.3227429 287.51999
-1.5177923 -4.8079696 -2.1059511 287.51999
-1.6286666 -5.1591907 -2.1125963 287.51999
-1.7482221 -5.5379109 -2.1136844 287.51999
-1.8845847 -5.969872 -2.1153331 287.51999
-2.0432222 -6.4723945 -2.1178894 287.51999
-2.2345688 -7.0785303 -2.1284716 287.51999
-2.4561915 -7.7805729 -2.1359227 287.51999
-2.725404 -8.6333675 -2.1451235 287.51999
-3.0411856 -9.6336823 -2.1473119 287.51999
-3.4411376 -10.900624 -2.1536891 287.51999
-4.0239458 -12.61629 -2.1756573 287.69
-4.7513623 -14.896961 -2.1975434 287.69
