# .PCD v0.7 - Point Cloud Data file format
VERSION 0.7
FIELDS x y z intensity
SIZE 4 4 4 4
TYPE F F F F
COUNT 1 1 1 1
WIDTH 1287
HEIGHT 1
VIEWPOINT 0 0 0 1 0 0 0
POINTS 1287
DATA ascii
2.0481222 4.234858 -1.9648862 115.81
12.507945 25.862408 -0.66698539 115.81
2.1008244 4.3438287 -1.884168 115.81
18.926327 39.133553 0 115.81
2.2829516 4.7204094 -1.9084724 115.81
18.926451 39.133812 1.0092517 115.81
2.2422264 4.6362028 -1.7401559 115.81
2.3532617 4.8657885 -1.6865668 115.81
2.4642577 5.0952921 -1.6229527 115.81
2.2921419 4.7394123 -1.3781943 115.81
2.9478996 6.0953078 -1.4391648 115.81
3.0206938 6.2458229 -1.3071738 115.81
5.1254396 10.532025 -1.9243705 115.95
5.9175282 12.159651 -1.9005479 115.95
6.8479495 14.07153 -1.8300704 115.95
7.6015716 15.620112 -1.2147392 115.95
1.9971774 4.1039062 -2.0320563 115.95
12.24437 25.160381 -1.3048949 115.95
2.0447354 4.2016306 -1.9517819 115.95
12.469609 25.623215 -0.66160047 115.95
2.1106167 4.3370075 -1.8834406 115.95
19.055147 39.155529 0 115.95
2.2673399 4.6590505 -1.8858991 115.95
19.050888 39.146778 1.0107837 115.95
2.2543771 4.6324139 -1.7407962 115.95
2.1688147 4.4565954 -1.5465657 115.95
2.4489386 5.0322089 -1.6047606 115.95
2.3079488 4.742496 -1.3807269 115.95
4.0465417 8.3150492 -1.9655972 115.95
4.4722152 9.1897459 -1.9255818 115.95
5.1551204 10.504341 -1.922425 116.14
5.9543281 12.132849 -1.8994344 116.14
6.8840728 14.027345 -1.8272828 116.14
6.973834 14.210247 -1.476796 116.14
8.6843777 17.69574 -1.3783879 116.14
2.0123854 4.1005411 -2.0336833 116.14
12.29341 25.049694 -1.3012614 116.14
2.0464613 4.1699762 -1.9402192 116.14
12.668145 25.813272 -0.66758889 116.14
2.1249871 4.3299842 -1.8834406 116.14
19.219252 39.162148 0 116.14
2.2786374 4.6430702 -1.8824788 116.14
19.211432 39.14621 1.0124084 116.14
2.2914302 4.6691375 -1.7574422 116.14
2.1995628 4.4819436 -1.5578849 116.14
27.092974 55.206055 4.3002076 116.14
2.3436446 4.7755322 -1.5253772 116.14
2.4847679 5.0630927 -1.4764559 116.14
2.6510584 5.4019351 -1.4257785 116.14
2.9924376 6.0975466 -1.4437388 116.14
4.5130558 9.1960373 -1.9300255 116.14
5.1791873 10.479289 -1.9204797 116.3
5.9890637 12.117949 -1.8997128 116.3
6.8985734 13.958202 -1.8207784 116.3
6.604979 13.36416 -1.3907781 116.3
7.4431434 15.060057 -1.1746991 116.3
2.0197806 4.0867157 -2.0296159 116.3
12.257092 24.800343 -1.2900814 116.3
2.048286 4.144392 -1.930969 116.3
12.649818 25.594963 -0.6628539 116.3
2.1354196 4.320693 -1.8819857 116.3
19.359552 39.171078 0 116.3
2.320739 4.6956587 -1.9064202 116.3
19.355223 39.162319 1.0142189 116.3
2.3069785 4.6678162 -1.7593629 116.3
2.3169637 4.6880198 -1.6317579 116.3
2.3033071 4.6603875 -1.4906468 116.3
2.522043 5.1029663 -1.4901315 116.3
4.5387182 9.1833992 -1.9300255 116.3
5.2050433 10.448834 -1.9178857 116.48
6.0271039 12.099074 -1.8997128 116.48
6.9379616 13.927571 -1.8196168 116.48
2.0301654 4.0754442 -2.0271754 116.48
2.0505986 4.1164622 -1.920948 116.48
12.757802 25.610577 -0.66429293 116.48
2.1498137 4.3156309 -1.8827131 116.48
19.511053 39.167351 0 116.48
2.3413453 4.70012 -1.9112085 116.48
19.506689 39.158588 1.0157044 116.48
2.2903721 4.5977945 -1.7356743 116.48
2.1784482 4.3731132 -1.5245229 116.48
27.360491 54.92466 4.2908602 116.48
2.3822286 4.7821908 -1.5319924 116.48
2.5397873 5.0984812 -1.4911445 116.48
2.5060475 5.0307503 -1.3317103 116.48
2.9989104 6.0201454 -1.4296008 116.48
4.5736809 9.1814089 -1.9326175 116.48
5.2439895 10.44922 -1.9208039 116.65
6.068306 12.09176 -1.9013829 116.65
6.8669882 13.683221 -1.7903469 116.65
6.8133268 13.576295 -1.4171593 116.65
7.7112947 15.365593 -1.2021831 116.65
2.0340533 4.0530725 -2.0190406 116.65
12.427178 24.762503 -1.292038 116.65
2.0470755 4.079021 -1.9063019 116.65
12.91714 25.738806 -0.66861016 116.65
2.1601019 4.3042378 -1.8805307 116.65
19.661268 39.177216 0 116.65
2.3047018 4.5923691 -1.8701662 116.65
19.654177 39.163086 1.0173291 116.65
2.2487624 4.4809036 -1.6940591 116.65
2.2976019 4.5782213 -1.5983958 116.65
2.4559076 4.8936629 -1.5700303 116.65
2.5201902 5.0217533 -1.4708844 116.65
2.8989327 5.7764387 -1.5313746 116.65
4.6035471 9.173068 -1.9337285 116.65
5.2696648 10.418605 -1.9182099 116.83
6.1080513 12.07617 -1.9019396 116.83
6.9081483 13.658034 -1.7898823 116.83
6.8163977 13.476636 -1.4089849 116.83
9.6955843 19.169048 -1.5021359 116.83
2.0385299 4.0303583 -2.010906 116.83
12.456218 24.627071 -1.2870069 116.83
2.0507176 4.0544548 -1.8978226 116.83
12.886936 25.47864 -0.66290027 116.83
2.1744542 4.2990928 -1.8812581 116.83
19.813135 39.172363 0 116.83
2.31318 4.5733662 -1.8653779 116.83
19.815018 39.176083 1.0192789 116.83
2.2260554 4.401113 -1.6665291 116.83
27.063915 53.507812 2.7963099 116.83
2.3352396 4.6169801 -1.6144811 116.83
2.2768998 4.5016375 -1.4465449 116.83
2.5158691 4.9741011 -1.4592348 116.83
2.6289604 5.1976929 -1.3801278 116.83
3.0515227 6.0331368 -1.4370856 116.83
4.6323423 9.1585608 -1.9337285 116.83
5.3023462 10.406441 -1.9188584 117
6.1384602 12.047406 -1.9002695 117
6.9080591 13.55783 -1.7794287 117
6.8626819 13.468772 -1.4102854 117
8.720746 17.115427 -1.3432306 117
2.0380371 3.9998729 -1.9987038 117
12.450324 24.435137 -1.2789015 117
2.0560358 4.0351977 -1.8916558 117
12.908011 25.333399 -0.660115 117
2.2210317 4.3590202 -1.9103574 117
19.966501 39.186466 0 117
2.2525089 4.4207973 -1.8058664 117
19.96203 39.177692 1.0208572 117
2.2313621 4.3792944 -1.660767 117
27.484678 53.941719 2.8232353 117
2.4720085 4.8515902 -1.6990775 117
2.4333868 4.7757907 -1.5369539 117
27.90818 54.772888 5.735148 117
2.5771706 5.057982 -1.4860795 117
2.7238874 5.3459301 -1.4216284 117
3.0845082 6.0536885 -1.4441546 117
3.0864031 6.0574069 -1.2808822 117
5.3322983 10.388906 -1.9185342 117.17
6.173274 12.027378 -1.8999912 117.17
6.745069 13.141405 -1.7273932 117.17
6.8380532 13.322566 -1.3970947 117.17
8.7195606 16.988304 -1.3352784 117.17
2.0415528 3.9775536 -1.9905691 117.17
12.398701 24.156366 -1.2662307 117.17
2.0654714 4.0241537 -1.8893433 117.17
12.908253 25.149124 -0.65630841 117.17
2.2628794 4.4087639 -1.9350915 117.17
20.117386 39.194668 0 117.17
2.2947941 4.470943 -1.8291237 117.17
20.111967 39.184109 1.0225748 117.17
2.2460761 4.3760262 -1.6620474 117.17
2.2117734 4.3091941 -1.5114164 117.17
27.692873 53.953972 4.2407751 117.17
2.4651039 4.8027573 -1.5479794 117.17
28.204241 54.950268 5.7624583 117.17
2.5850987 5.0365429 -1.4820275 117.17
2.7806153 5.4174676 -1.4428399 117.17
4.2244501 8.2304888 -1.9664288 117.17
3.0980799 6.0359831 -1.27829 117.17
5.3676314 10.386249 -1.9208039 117.33
6.1986532 11.994257 -1.8974861 117.33
6.7917728 13.141931 -1.7299485 117.33
6.8368311 13.229117 -1.3892918 117.33
8.7935305 17.015287 -1.3393244 117.33
2.0425861 3.9523592 -1.9808074 117.33
12.384476 23.963688 -1.2579389 117.33
2.0741589 4.0134521 -1.8870307 117.33
13.162947 25.470011 -0.66563916 117.33
2.2897229 4.430563 -1.9474586 117.33
20.25798 39.198746 0 117.33
2.3607671 4.5680327 -1.8715342 117.33
20.257113 39.197067 1.0243852 117.33
2.4809847 4.8006506 -1.8259473 117.33
27.462864 53.140038 2.7895088 117.33
2.2237985 4.3030009 -1.5114164 117.33
2.5570629 4.9478602 -1.5970428 117.33
2.5902703 5.012116 -1.4769624 117.33
2.7296145 5.281744 -1.408717 117.33
4.2366395 8.1978045 -1.9614389 117.33
3.1248493 6.0465145 -1.2823634 117.33
5.398396 10.36139 -1.9195069 117.52
6.2255816 11.949045 -1.8935893 117.52
6.8022728 13.055915 -1.7215856 117.52
7.0435243 13.51896 -1.4221755 117.52
8.9808121 17.237286 -1.3591352 117.52
2.0447066 3.9244995 -1.9702322 117.52
10.633341 20.409061 -1.073189 117.52
2.0823402 3.9967315 -1.8824056 117.52
13.187284 25.310961 -0.66262174 117.52
2.302681 4.4196415 -1.9460037 117.52
20.427593 39.207623 0 117.52
2.3541927 4.5185103 -1.8544332 117.52
20.419319 39.191738 1.0260099 117.52
2.4373574 4.6781325 -1.7824113 117.52
2.2733421 4.3633304 -1.5352465 117.52
27.664257 53.097282 4.1866441 117.52
2.597441 4.9853883 -1.6119273 117.52
2.5040679 4.8061728 -1.4187146 117.52
2.6877661 5.1587529 -1.3782833 117.52
4.2656093 8.1871796 -1.9622705 117.52
4.746839 9.1108265 -1.93558 117.52
5.426393 10.344527 -1.9191827 117.68
6.0270791 11.489637 -1.8234459 117.68
6.8746934 13.105474 -1.7306454 117.68
7.0211205 13.384614 -1.4100996 117.68
8.9380856 17.038994 -1.3454629 117.68
2.0437753 3.8961225 -1.9588437 117.68
10.474983 19.968836 -1.0515742 117.68
2.0977795 3.9990726 -1.8862599 117.68
19.529278 37.229362 -0.97606033 117.68
2.3150139 4.4131937 -1.9460037 117.68
20.56859 39.21064 0 117.68
2.3248959 4.4320326 -1.8215992 117.68
20.564907 39.203617 1.0278203 117.68
2.3148646 4.412909 -1.6838154 117.68
2.3697727 4.5175824 -1.5918427 117.68
27.818911 53.032188 4.1876206 117.68
2.3943353 4.5644073 -1.4779675 117.68
28.234341 53.824135 5.6704955 117.68
2.3287358 4.439353 -1.312349 117.68
2.7609239 5.263248 -1.4082559 117.68
4.2848206 8.1683064 -1.9606073 117.68
4.7713499 9.0957947 -1.9352098 117.68
5.4551754 10.32045 -1.9178857 117.86
5.9696665 11.293797 -1.795333 117.86
6.926971 13.104887 -1.733433 117.86
7.0612736 13.358969 -1.4097281 117.86
7.0989032 13.43016 -1.0622516 117.86
2.0466132 3.8719139 -1.9498955 117.86
10.748661 20.335005 -1.0726299 117.86
2.1060207 3.9843044 -1.8824056 117.86
12.032864 22.764542 -0.59781724 117.86
2.3349612 4.417429 -1.9510961 117.86
12.011806 22.724703 0 117.86
2.3229992 4.3947988 -1.8092866 117.86
20.721603 39.202457 1.0294915 117.86
2.2773609 4.3084569 -1.6466818 117.86
2.3589716 4.4628534 -1.5751617 117.86
2.3493674 4.4446836 -1.4415834 117.86
2.5804644 4.8818874 -1.4455593 117.86
3.1201701 5.9029374 -1.4192052 117.86
4.7943907 9.0703354 -1.9329879 117.86
5.4829903 10.298992 -1.916913 118.03
6.3047032 11.84246 -1.8855171 118.03
6.9686241 13.089537 -1.7341299 118.03
6.0462284 11.356953 -1.2003496 118.03
2.0469306 3.8448584 -1.9393203 118.03
9.1781712 17.239847 -0.91079915 118.03
2.1169658 3.9764092 -1.8816348 118.03
2.3454311 4.4055481 -1.9489136 118.03
20.886679 39.232559 0 118.03
2.3457439 4.4061351 -1.816811 118.03
20.878233 39.216694 1.0314877 118.03
2.2402713 4.2080207 -1.6108286 118.03
28.243343 53.050972 2.8027384 118.03
2.4870448 4.6715484 -1.6514176 118.03
27.787004 52.193806 4.1347451 118.03
2.3760965 4.4631481 -1.4498525 118.03
28.594421 53.710423 5.6768117 118.03
2.5003781 4.6965933 -1.3928829 118.03
2.5278051 4.7481108 -1.2745316 118.03
3.1404288 5.8988342 -1.4204527 118.03
4.824976 9.0630093 -1.9344691 118.03
5.5135236 10.282679 -1.916913 118.2
6.2443504 11.645664 -1.8571259 118.2
6.0537066 11.290115 -1.4981117 118.2
7.1677122 13.367726 -1.4151157 118.2
7.86766 14.673124 -1.1642356 118.2
2.0479686 3.8194454 -1.9295586 118.2
10.717145 19.987392 -1.0576301 118.2
2.1304989 3.9733634 -1.8831766 118.2
2.3356028 4.3558807 -1.9299992 118.2
21.03985 39.239155 0 118.2
2.3294992 4.3444977 -1.7942376 118.2
21.029457 39.219772 1.0332053 118.2
2.2930386 4.2764988 -1.6396393 118.2
28.454437 53.067299 2.808049 118.2
2.3881197 4.4538245 -1.5769489 118.2
2.3811519 4.4408298 -1.444891 118.2
2.5362451 4.7300773 -1.4050391 118.2
29.219061 54.49332 7.2308455 118.2
4.3578515 8.1273584 -1.9601914 118.2
4.8434868 9.0330639 -1.9311364 118.2
5.5458007 10.265306 -1.916913 118.38
6.094512 11.280974 -1.8020133 118.38
6.0400472 11.18016 -1.486032 118.38
7.1718116 13.275062 -1.4076843 118.38
8.0588112 14.916903 -1.185581 118.38
2.0530102 3.8001328 -1.9230509 118.38
10.643142 19.700512 -1.0442141 118.38
2.1385851 3.9585323 -1.8793223 118.38
12.71796 23.541012 -0.62121367 118.38
2.3528178 4.3550782 -1.9329091 118.38
21.193439 39.229172 0 118.38
2.3431363 4.3371577 -1.7942376 118.38
21.192482 39.227398 1.0351551 118.38
2.4145353 4.4693179 -1.7164673 118.38
2.3766906 4.3992672 -1.5602679 118.38
28.607925 52.953423 4.2086873 118.38
2.3155901 4.28617 -1.3969301 118.38
28.901161 53.496204 5.6727247 118.38
2.5933962 4.8003902 -1.4283382 118.38
29.300413 54.235222 7.208777 118.38
3.9868472 7.3796754 -1.9874208 118.38
4.3731346 8.0946951 -1.9556173 118.38
4.8699722 9.0143452 -1.9303957 118.38
5.5649152 10.228004 -1.913022 118.55
6.086308 11.186295 -1.7897661 118.55
7.1308036 13.106019 -1.7448158 118.55
7.0912514 13.033324 -1.3842757 118.55
7.9991007 14.701901 -1.1703742 118.55
2.0564175 3.7795804 -1.9157296 118.55
10.9498 20.12512 -1.0684375 118.55
2.1556127 3.9618959 -1.8839474 118.55
12.794441 23.515469 -0.62153864 118.55
2.3862078 4.3857169 -1.9496411 118.55
21.350843 39.241657 0 118.55
2.3344376 4.290566 -1.7778207 118.55
21.347002 39.2346 1.0370119 118.55
2.4132967 4.4355044 -1.7062236 118.55
2.3276856 4.2781563 -1.5197569 118.55
28.762054 52.863052 4.2082686 118.55
2.4560137 4.5140162 -1.4735574 118.55
28.956974 53.221302 5.6526599 118.55
2.7407832 5.0374064 -1.5012746 118.55
2.8200593 5.1831117 -1.3981113 118.55
4.4055471 8.0971498 -1.9593598 118.55
4.8938789 8.9946766 -1.9292848 118.55
5.5916729 10.2134 -1.913022 118.7
6.1288881 11.194644 -1.7936629 118.7
2.0513892 3.7469392 -1.9019005 118.7
10.90363 19.915888 -1.0588413 118.7
2.1615465 3.9481452 -1.8800931 118.7
12.805071 23.388939 -0.61907834 118.7
2.398576 4.3810887 -1.9503686 118.7
21.482319 39.238258 0 118.7
2.3176842 4.2333364 -1.7566154 118.7
21.484213 39.241714 1.0386831 118.7
2.3894141 4.3643541 -1.6812544 118.7
28.5749 52.193119 2.7748816 118.7
2.3911383 4.3675032 -1.5537146 118.7
2.4521279 4.4789033 -1.4641856 118.7
29.201401 53.337448 5.6730962 118.7
2.681489 4.89784 -1.4617673 118.7
2.8130584 5.1381564 -1.3879668 118.7
4.4192147 8.0718613 -1.9560332 118.7
4.9108033 8.9697657 -1.9266927 118.7
5.61693 10.17925 -1.9101039 118.89
6.2166905 11.266163 -1.8084153 118.89
7.2900267 13.211309 -1.7645614 118.89
7.3070068 13.242083 -1.4110285 118.89
8.017765 14.530149 -1.1604687 118.89
2.058507 3.7305176 -1.8970197 118.89
8.7718306 15.8967 -0.84670037 118.89
2.1799767 3.9506505 -1.8847182 118.89
12.717375 23.046991 -0.61114019 118.89
2.4103909 4.3682175 -1.9481862 118.89
34.535069 62.585983 0 118.89
2.3571332 4.2717013 -1.7757686 118.89
2.3700035 4.2950253 -1.6575657 118.89
28.77002 52.138306 2.7770245 118.89
2.4148321 4.376266 -1.5596721 118.89
29.373089 53.231216 4.2513781 118.89
2.5069065 4.5431271 -1.4878905 118.89
2.6435001 4.790668 -1.4323902 118.89
2.6476777 4.7982392 -1.2985097 118.89
3.1151948 5.6454945 -1.3705539 118.89
4.9405212 8.9534321 -1.9266927 118.89
5.6252098 10.127295 -1.9032948 119.05
6.2635145 11.276461 -1.8128688 119.05
6.206058 11.173019 -1.4946272 119.05
2.0644805 3.7167685 -1.8929523 119.05
8.9927444 16.190004 -0.86365676 119.05
2.2438712 4.0397329 -1.9301981 119.05
2.4252937 4.3663549 -1.9503686 119.05
2.4019058 4.3242488 -1.8003941 119.05
2.4307504 4.3761792 -1.6914982 119.05
2.341754 4.2159553 -1.5048633 119.05
2.5737281 4.6335874 -1.5198643 119.05
29.67655 53.427902 5.7018929 119.05
2.5554032 4.6005969 -1.3776879 119.05
2.7451699 4.9422412 -1.3395493 119.05
3.1280982 5.6316423 -1.3693064 119.05
4.9588242 8.9275732 -1.9241005 119.05
5.6404457 10.075865 -1.8971343 119.24
6.340539 11.326484 -1.824281 119.24
6.3517513 11.346513 -1.5206449 119.24
6.2360682 11.139861 -1.1910604 119.24
8.0430279 14.367742 -1.1514003 119.24
2.0732245 3.7035248 -1.8896984 119.24
11.134761 19.890688 -1.0630338 119.24
2.292412 4.0950727 -1.9602611 119.24
12.89992 23.043898 -0.61313635 119.24
2.4270194 4.3355298 -1.9401839 119.24
22.298607 39.833336 0 119.24
2.3978717 4.2834616 -1.7867132 119.24
2.4378448 4.3548675 -1.6863763 119.24
2.368778 4.2314897 -1.5132037 119.24
29.031113 51.860012 4.155951 119.24
2.5609066 4.5747004 -1.5033262 119.24
30.018921 53.624592 5.7334762 119.24
4.1237788 7.3665524 -2.0003321 119.24
4.4950929 8.0298529 -1.9560332 119.24
4.9788013 8.8939304 -1.9203975 119.24
5.6645017 10.04877 -1.8951888 119.41
6.3303523 11.229982 -1.8117554 119.41
7.1530833 12.689499 -1.359009 119.41
2.0851011 3.6989489 -1.8905119 119.41
12.665297 22.468111 -1.2027841 119.41
2.307271 4.0930758 -1.9625736 119.41
13.034019 23.122221 -0.61624658 119.41
2.4188313 4.2909827 -1.9234519 119.41
22.414734 39.763515 0 119.41
2.3053617 4.0896888 -1.7087326 119.41
2.4033031 4.2634358 -1.6537243 119.41
29.351898 52.069977 2.7874591 119.41
29.150566 51.712814 4.1510682 119.41
2.4564605 4.3577366 -1.4344168 119.41
30.184742 53.547432 5.7347765 119.41
2.6469653 4.6956902 -1.4111171 119.41
2.8382859 5.0350909 -1.369522 119.41
4.5198588 8.0181847 -1.956449 119.41
5.0013075 8.8722706 -1.9189163 119.41
5.688447 10.021621 -1.8932434 119.58
6.2932525 11.087137 -1.7917145 119.58
6.4130874 11.298256 -1.5192511 119.58
7.2280569 12.734029 -1.3660688 119.58
8.2837563 14.593906 -1.1734434 119.58
2.095165 3.6911569 -1.8896984 119.58
12.786146 22.525991 -1.2079083 119.58
2.3339813 4.1118913 -1.9749072 119.58
2.4416683 4.301609 -1.9314542 119.58
22.732044 40.04818 0 119.58
2.4074764 4.2413716 -1.7750845 119.58
2.4514847 4.318903 -1.6780533 119.58
2.448509 4.3136606 -1.5477571 119.58
2.5566902 4.5042486 -1.4851341 119.58
2.6226823 4.6205106 -1.390857 119.58
2.8503308 5.0215702 -1.3681387 119.58
4.5388007 7.996232 -1.9543699 119.58
5.0198483 8.8437176 -1.9159539 119.58
5.7228413 10.008841 -1.8942161 119.76
6.320188 11.053557 -1.7894877 119.76
6.4347458 11.25391 -1.515999 119.76
7.3530326 12.859928 -1.3820462 119.76
2.1067507 3.6845565 -1.8896984 119.76
2.3459716 4.1029363 -1.9741364 119.76
12.656952 22.136105 -0.59201455 119.76
2.4616432 4.3052382 -1.9365466 119.76
2.4767611 4.3316784 -1.8161269 119.76
2.42554 4.2420959 -1.6511635 119.76
30.510351 53.360424 2.8664646 119.76
2.4611011 4.3042898 -1.5471615 119.76
30.413651 53.191299 4.2845821 119.76
2.5030742 4.3776979 -1.4459935 119.76
2.5968494 4.5417042 -1.3695838 119.76
4.1991587 7.3440285 -2.0044823 119.76
4.5706964 7.9938216 -1.9572806 119.76
5.043705 8.8210793 -1.9144727 119.76
5.7401681 9.9784279 -1.8912979 119.91
6.3649054 11.064441 -1.7939413 119.91
7.3936253 12.852716 -1.3833467 119.91
8.2313786 14.309027 -1.1543301 119.91
2.1163898 3.6790285 -1.8896984 119.91
12.907704 22.438122 -1.207163 119.91
2.3447418 4.075985 -1.9641154 119.91
12.61516 21.929577 -0.58737236 119.91
2.4403923 4.2422585 -1.9110848 119.91
2.4693503 4.2925978 -1.8024461 119.91
2.4640367 4.283361 -1.6697302 119.91
2.4980652 4.3425145 -1.5632466 119.91
2.5164437 4.3744626 -1.4470961 119.91
2.678194 4.6556416 -1.406052 119.91
2.6783307 4.6558795 -1.2726871 119.91
4.5886822 7.9767408 -1.9560332 119.91
5.0658011 8.8061409 -1.9141023 119.91
5.7732263 9.9593382 -1.8912979 120.1
6.5843215 11.358551 -1.845157 120.1
6.3519793 10.957739 -1.4811537 120.1
7.4002528 12.766107 -1.3766584 120.1
8.2367592 14.209156 -1.1484706 120.1
2.1258292 3.667248 -1.8872581 120.1
13.039151 22.493715 -1.2124734 120.1
2.3665752 4.0825567 -1.971053 120.1
12.757002 22.006983 -0.59057546 120.1
2.4516437 4.2293072 -1.9089023 120.1
2.4816864 4.2811337 -1.8010781 120.1
38.054409 65.647301 1.7616993 120.1
2.2824776 3.9374807 -1.537842 120.1
31.321415 54.032276 2.9124889 120.1
2.5038345 4.3193412 -1.5578849 120.1
2.4865844 4.2895832 -1.4217374 120.1
2.6878996 4.6368699 -1.2699205 120.1
4.6062789 7.9462481 -1.9522908 120.1
5.0979323 8.7943945 -1.9152132 120.1
5.8109603 9.9602232 -1.8945403 120.26
6.696856 11.478684 -1.867703 120.26
6.7709532 11.60569 -1.5712867 120.26
7.9024973 13.545203 -1.463048 120.26
8.2552938 14.14991 -1.1455408 120.26
2.1379032 3.6644535 -1.888885 120.26
12.995198 22.2743 -1.2025977 120.26
2.3770366 4.074338 -1.9702821 120.26
12.826468 21.985088 -0.59094685 120.26
2.3789513 4.0776196 -1.8434293 120.26
2.5267794 4.3310027 -1.8250195 120.26
2.2791421 3.9065425 -1.5282385 120.26
2.4860616 4.2612109 -1.5394167 120.26
31.250673 53.56493 4.3364811 120.26
2.546994 4.3656516 -1.4493012 120.26
2.9132824 4.993485 -1.5134307 120.26
2.8469613 4.8798079 -1.3386271 120.26
4.6264791 7.9299746 -1.9514592 120.26
5.1244516 8.7835197 -1.9159539 120.26
5.8392229 9.9368143 -1.8935676 120.44
6.7820516 11.541259 -1.8813419 120.44
6.6222 11.269234 -1.5285432 120.44
6.617312 11.260916 -1.2185564 120.44
8.4958019 14.457608 -1.1726063 120.44
2.1466279 3.6529932 -1.8864446 120.44
13.000332 22.123127 -1.196635 120.44
2.3898249 4.0668502 -1.9702821 120.44
12.837731 21.846424 -0.58830082 120.44
2.4257288 4.1279492 -1.8696185 120.44
2.381639 4.0529199 -1.5884205 120.44
2.61164 4.4443207 -1.6085236 120.44
2.5032291 4.2598343 -1.4167761 120.44
2.8563619 4.8607726 -1.3358604 120.44
4.6513691 7.9154005 -1.9514592 120.44
5.1460462 8.7572107 -1.9137321 120.44
5.8824739 9.9388008 -1.8974586 120.62
6.8192844 11.5216 -1.8816203 120.62
6.4916372 10.968019 -1.4904457 120.62
7.9123912 13.36847 -1.4492999 120.62
8.517807 14.391357 -1.1693975 120.62
2.1627467 3.654093 -1.8905119 120.62
13.033136 22.020283 -1.1932811 120.62
2.3866098 4.0323234 -1.9571778 120.62
12.805478 21.635641 -0.58370507 120.62
2.4396341 4.1219115 -1.870346 120.62
23.707825 40.055824 0 120.62
2.3069713 3.8977697 -1.648537 120.62
2.4146266 4.0796595 -1.6018654 120.62
2.4174871 4.0844927 -1.4810332 120.62
2.5038695 4.2304416 -1.4096094 120.62
4.2890892 7.2466798 -1.9952599 120.62
4.6712308 7.8923316 -1.94938 120.62
5.1404972 8.6851854 -1.901512 120.62
5.9169884 9.92978 -1.8990797 120.79
6.8503985 11.496212 -1.8807852 120.79
7.9548683 13.349712 -1.8172939 120.79
7.9978924 13.421915 -1.4576602 120.79
8.4511909 14.182632 -1.1544696 120.79
2.170773 3.6429513 -1.8880715 120.79
13.087165 21.962639 -1.1922562 120.79
2.3947847 4.0188832 -1.9540944 120.79
12.980155 21.783054 -0.58871859 120.79
2.4013095 4.0298333 -1.8317896 120.79
13.765825 23.101553 0 120.79
2.3483496 3.9409566 -1.6697423 120.79
13.764163 23.098764 0.62427753 120.79
2.4306002 4.0789881 -1.6044264 120.79
13.737586 23.054163 1.2515104 120.79
2.4452324 4.1035438 -1.4905652 120.79
13.731271 23.043564 1.8757516 120.79
2.5321567 4.2494183 -1.4184299 120.79
13.767466 23.104305 2.509197 120.79
2.4473054 4.1070228 -1.2515687 120.79
13.727563 23.037342 3.1360688 120.79
3.0712948 5.1541901 -1.4216284 120.79
13.727157 23.036659 3.7688076 120.79
4.6886191 7.8683534 -1.9468851 120.79
5.1833472 8.6985979 -1.9078072 120.79
5.9454093 9.9104881 -1.8987554 120.96
6.8824406 11.472439 -1.8802286 120.96
7.9372153 13.230659 -1.8042849 120.96
8.4429426 14.073662 -1.1476336 120.96
2.2144699 3.6913316 -1.916543 120.96
13.137883 21.899727 -1.1909519 120.96
2.4047995 4.008595 -1.9525527 120.96
12.927468 21.548983 -0.58342654 120.96
2.3845036 3.9747634 -1.8099654 120.96
13.82299 23.04174 0 120.96
2.4779854 4.1305895 -1.7531953 120.96
13.817209 23.032104 0.62358123 120.96
2.4680352 4.1140032 -1.6210724 120.96
13.829567 23.052704 1.2536532 120.96
2.5025771 4.1715817 -1.5179697 120.96
2.4606869 4.1017542 -1.3715715 120.96
4.3380232 7.2311134 -1.9980266 120.96
4.6958418 7.8275661 -1.9402319 120.96
5.2131782 8.6899214 -1.9092884 120.96
5.9764328 9.9033375 -1.9003767 121.11
6.9052882 11.442512 -1.8782802 121.11
7.9646416 13.197928 -1.8026588 121.11
7.8566608 13.018998 -1.4186456 121.11
11.096051 18.386877 -1.5017173 121.11
2.2637753 3.7512228 -1.950709 121.11
13.216848 21.901176 -1.1929084 121.11
2.3714235 3.9296029 -1.9170938 121.11
13.02413 21.581829 -0.58523697 121.11
2.3891258 3.9589367 -1.8056004 121.11
11.634663 19.279392 0 121.11
2.4586885 4.0742064 -1.73199 121.11
2.6060655 4.3184199 -1.7043028 121.11
2.5095437 4.1584768 -1.5155867 121.11
2.5498903 4.2253337 -1.4151222 121.11
2.8020983 4.643259 -1.4197277 121.11
2.9904311 4.9553385 -1.3713665 121.11
4.7254152 7.8303204 -1.9439743 121.11
5.2308331 8.6678295 -1.9074368 121.11
6.0095658 9.887886 -1.9010252 121.29
6.9514885 11.437686 -1.8810636 121.29
8.0432062 13.233953 -1.8110217 121.29
8.0019817 13.166124 -1.4374098 121.29
8.6388798 14.214049 -1.1631194 121.29
2.2964256 3.7784419 -1.9686054 121.29
13.311528 21.902227 -1.1952375 121.29
2.3837569 3.9221334 -1.9170938 121.29
13.189482 21.701418 -0.58960062 121.29
2.3831673 3.9211631 -1.7917783 121.29
2.444145 4.0214934 -1.7128369 121.29
2.6019058 4.2810664 -1.6927786 121.29
2.526562 4.1570988 -1.5179697 121.29
2.5731368 4.2337313 -1.420635 121.29
2.8106425 4.6245127 -1.4166886 121.29
4.3765669 7.2010193 -1.9966432 121.29
4.7530398 7.8204513 -1.9452218 121.29
5.228435 8.6026468 -1.8966981 121.29
6.038877 9.8700123 -1.9010252 121.46
6.9874611 11.420389 -1.8816203 121.46
8.1207962 13.272725 -1.8196168 121.46
11.160264 18.240467 -1.4952998 121.46
2.3076262 3.7716117 -1.9686054 121.46
13.342047 21.806398 -1.1921631 121.46
2.3867152 3.9008756 -1.9101561 121.46
11.803313 19.291473 -0.5250746 121.46
2.4025695 3.9267881 -1.7975982 121.46
2.4609706 4.0222392 -1.7162571 121.46
2.6373408 4.3105011 -1.707504 121.46
2.5916955 4.235898 -1.5495445 121.46
2.5776603 4.2129583 -1.4162247 121.46
2.6133075 4.2712207 -1.3108295 121.46
2.8205557 4.6099496 -1.2805262 121.46
4.7731595 7.8013082 -1.9439743 121.46
5.2570138 8.5921259 -1.897809 121.46
6.0674319 9.8432121 -1.8997282 121.65
7.0273728 11.400527 -1.882177 121.65
8.1553841 13.230503 -1.8175261 121.65
8.1221657 13.176613 -1.444098 121.65
11.185096 18.145613 -1.4905564 121.65
2.3182032 3.7608278 -1.9669784 121.65
11.928818 19.352156 -1.0601456 121.65
2.4306259 3.9432116 -1.9348232 121.65
13.338164 21.638544 -0.59015769 121.65
2.4673893 4.0028529 -1.8361546 121.65
24.946665 40.471046 0 121.65
2.4348485 3.9500618 -1.6888955 121.65
2.5710876 4.171083 -1.655645 121.65
33.749573 54.752026 2.9994137 121.65
2.644799 4.2906651 -1.5727787 121.65
2.5996873 4.2174802 -1.420635 121.65
2.8020794 4.5458217 -1.397948 121.65
2.9471364 4.781148 -1.330788 121.65
4.7938709 7.7771106 -1.9418952 121.65
5.3122916 8.6181459 -1.9074368 121.65
6.0882859 9.8117514 -1.8971343 121.82
7.0580349 11.374578 -1.8813419 121.82
8.1631823 13.15561 -1.8105571 121.82
9.4904566 15.294616 -1.6793004 121.82
11.232574 18.102175 -1.4897193 121.82
2.3322415 3.7585905 -1.9694189 121.82
11.976705 19.301399 -1.0593071 121.82
2.4646947 3.972049 -1.9525527 121.82
13.308483 21.447666 -0.58602613 121.82
2.4075491 3.8799546 -1.7830486 121.82
11.865289 19.121845 0 121.82
2.4525034 3.9524016 -1.6929997 121.82
2.5984373 4.1875858 -1.6652486 121.82
33.983505 54.767086 3.005749 121.82
2.6011462 4.1919518 -1.5394167 121.82
2.6000254 4.190145 -1.4140196 121.82
2.8726819 4.6295524 -1.4263122 121.82
4.4347811 7.1469984 -1.9929543 121.82
4.8210506 7.7695017 -1.9435585 121.82
5.3202224 8.5739555 -1.9011418 121.82
6.1205077 9.798665 -1.8981071 121.99
7.0875559 11.346867 -1.8802286 121.99
8.1600857 13.063939 -1.801265 121.99
8.1685648 13.077515 -1.4385245 121.99
11.293633 18.080612 -1.4906958 121.99
2.3220887 3.7175622 -1.9515225 121.99
12.682714 20.30447 -1.1164184 121.99
2.4637592 3.9443707 -1.9425317 121.99
11.951597 19.133984 -0.5237748 121.99
2.4427378 3.9107163 -1.8005081 121.99
2.4990671 4.0008969 -1.7169411 121.99
34.358063 55.005753 1.5057306 121.99
2.6459832 4.2361035 -1.6876568 121.99
2.5579431 4.0951552 -1.5066504 121.99
2.6542048 4.2492657 -1.4366219 121.99
2.9192054 4.6735201 -1.4425203 121.99
4.4497814 7.1239052 -1.9901875 121.99
4.8378634 7.7452078 -1.9410635 121.99
5.3456383 8.5581331 -1.9011418 121.99
6.1366906 9.7675686 -1.8951888 122.14
7.1319885 11.351751 -1.8841255 122.14
8.1593847 12.987024 -1.7935991 122.14
11.247528 17.902319 -1.4784187 122.14
2.358057 3.7532418 -1.9734862 122.14
12.02905 19.146242 -1.0544624 122.14
13.479118 21.454269 -0.58825439 122.14
2.4747717 3.9390128 -1.8165126 122.14
2.5265296 4.0213943 -1.7285697 122.14
2.6298485 4.185843 -1.6703705 122.14
33.95512 54.04525 2.9764946 122.14
2.5940475 4.12886 -1.5215442 122.14
2.6070228 4.1495123 -1.4051993 122.14
2.9458408 4.688798 -1.4496113 122.14
4.4590983 7.0974002 -1.9860375 122.14
4.8529201 7.7242332 -1.9389844 122.14
5.3669796 8.5424442 -1.9007714 122.14
6.1722136 9.7521677 -1.8961616 122.33
7.1653562 11.321344 -1.8830121 122.33
8.1588507 12.891076 -1.7840748 122.33
8.3908596 13.257653 -1.4637911 122.33
11.313234 17.875038 -1.4792558 122.33
2.369513 3.7438576 -1.9726727 122.33
12.0273 19.003271 -1.0487792 122.33
13.447536 21.247259 -0.58379793 122.33
2.5216954 3.9843075 -1.8412468 122.33
2.6011615 4.1098647 -1.7702962 122.33
34.183434 54.010212 1.4840053 122.33
2.627502 4.1514826 -1.6601267 122.33
2.6577559 4.1992841 -1.550736 122.33
34.330219 54.242134 4.4888291 122.33
2.6742327 4.225318 -1.4338655 122.33
2.679929 4.2343183 -1.3118426 122.33
4.4857321 7.0875077 -1.9874208 122.33
4.8847852 7.7180161 -1.9414793 122.33
5.3973799 8.5279217 -1.901512 122.33
6.1983624 9.7332287 -1.8958373 122.49
7.2097096 11.321338 -1.8863522 122.49
7.0520244 11.073726 -1.5352799 122.49
8.2556334 12.963741 -1.4338799 122.49
11.305235 17.752501 -1.4717221 122.49
2.3789773 3.7356849 -1.9718592 122.49
13.359502 20.978296 -1.1598341 122.49
2.1531124 3.3810115 -1.6742773 122.49
13.541186 21.263594 -0.5852834 122.49
2.4967861 3.9206791 -1.8150576 122.49
2.5288384 3.9710102 -1.7135209 122.49
2.6808136 4.2096553 -1.6863763 122.49
2.6766508 4.2031188 -1.5549061 122.49
2.7324927 4.2908068 -1.4586729 122.49
2.8860888 4.5319972 -1.4065585 122.49
4.498189 7.0634627 -1.984193 122.49
4.9010649 7.6960945 -1.9394002 122.49
5.4190617 8.5095005 -1.9007714 122.49
6.2278442 9.7120466 -1.8955131 122.67
8.2405653 12.850795 -1.7852362 122.67
9.6453581 15.041508 -1.6670387 122.67
11.304948 17.629564 -1.4644674 122.67
2.3956327 3.735883 -1.9759266 122.67
13.411322 20.91436 -1.158623 122.67
13.470848 21.007189 -0.57938784 122.67
2.4819386 3.8704727 -1.7954158 122.67
2.4763737 3.8617947 -1.6697423 122.67
35.137966 54.796093 1.5113013 122.67
2.6643643 4.1549578 -1.6678095 122.67
2.5929666 4.0436158 -1.4989057 122.67
34.665493 54.059292 4.4906425 122.67
2.6463325 4.1268377 -1.4057505 122.67
2.9577546 4.6124868 -1.4344162 122.67
4.5214081 7.0509348 -1.9846541 122.67
4.9220505 7.6757193 -1.9381528 122.67
5.4309154 8.4692707 -1.8955872 122.67
6.2519016 9.6824856 -1.8935676 122.85
7.0572414 10.929736 -1.8284562 122.85
7.7550564 12.010461 -1.6718731 122.85
9.6914845 15.009459 -1.6668528 122.85
11.316987 17.526918 -1.4588869 122.85
2.40042 3.7175939 -1.9702322 122.85
13.64385 21.130592 -1.1729707 122.85
2.2614059 3.5022991 -1.7413409 122.85
2.4475994 3.7906621 -1.7619518 122.85
2.5292718 3.9171503 -1.697104 122.85
34.635323 53.64064 1.482427 122.85
2.6332092 4.0781207 -1.6402794 122.85
2.6139421 4.0482812 -1.5036718 122.85
34.756149 53.827766 4.4804583 122.85
2.6394699 4.0878167 -1.3952763 122.85
2.9428439 4.5576606 -1.4202341 122.85
4.5393143 7.0301561 -1.9828097 122.85
4.9472013 7.6618619 -1.9385686 122.85
5.4670906 8.4670277 -1.8989199 122.85
6.2569427 9.6274881 -1.8864343 123.02
7.0745296 10.8855 -1.8245593 123.02
9.7327204 14.975629 -1.6662955 123.02
11.329802 17.433039 -1.4538645 123.02
2.4034746 3.6981995 -1.9637245 123.02
13.535563 20.827019 -1.1583434 123.02
2.2386007 3.4445097 -1.7159029 123.02
14.043467 21.608524 -0.59832788 123.02
2.4750791 3.8083766 -1.7735914 123.02
2.5716074 3.9569032 -1.7176251 123.02
34.794323 53.53764 1.482427 123.02
2.6287775 4.0448704 -1.6300358 123.02
2.6498711 4.0773273 -1.5173739 123.02
34.790676 53.532024 4.4644141 123.02
2.7165411 4.1799111 -1.4294553 123.02
2.9415932 4.5261965 -1.413143 123.02
4.5559111 7.0101295 -1.9809651 123.02
4.9624505 7.6356673 -1.9356579 123.02
5.4943309 8.4540653 -1.8996605 123.02
6.2844005 9.6072292 -1.8861101 123.19
7.0406618 10.763358 -1.8075802 123.19
9.7738409 14.941686 -1.6657382 123.19
11.359632 17.365953 -1.4510741 123.19
2.3994341 3.6681168 -1.9515225 123.19
13.709944 20.958973 -1.1679397 123.19
2.3114462 3.5336061 -1.7636954 123.19
2.5026853 3.8259614 -1.7852311 123.19
26.280403 40.175968 0 123.19
2.5195501 3.8517432 -1.6752146 123.19
2.7040377 4.1337771 -1.66909 123.19
2.6901758 4.1125855 -1.5334592 123.19
35.17762 53.777519 4.4935727 123.19
2.7447174 4.1959662 -1.4377245 123.19
3.0287549 4.6301861 -1.3109599 123.19
4.9808006 7.6143613 -1.9339945 123.19
5.5118589 8.4262123 -1.8970684 123.19
6.3057795 9.5813999 -1.8844888 123.35
7.0717797 10.74531 -1.8078586 123.35
9.7991066 14.889382 -1.6629515 123.35
11.40589 17.33083 -1.4507952 123.35
2.3353391 3.5484617 -1.8913254 123.35
13.704717 20.823812 -1.162536 123.35
2.5353763 3.852411 -1.9263439 123.35
2.5512547 3.8765376 -1.8121477 123.35
26.129711 39.703136 0 123.35
2.5065329 3.8085847 -1.6594818 123.35
35.386795 53.768936 1.4944502 123.35
2.7176542 4.1293755 -1.6703705 123.35
2.7688236 4.2071257 -1.5715872 123.35
35.358368 53.725739 4.497479 123.35
2.7152045 4.1256533 -1.4162247 123.35
2.7963638 4.2489719 -1.3315961 123.35
4.5983505 6.9870243 -1.9818875 123.35
4.9923649 7.5857153 -1.9302522 123.35
5.537529 8.4140711 -1.897809 123.35
6.3429699 9.5686617 -1.8861101 123.54
7.0964308 10.705292 -1.8050752 123.54
6.7247419 10.144582 -1.4233106 123.54
8.0065928 12.078312 -1.3519492 123.54
11.414795 17.219742 -1.4446566 123.54
2.416749 3.6457767 -1.947455 123.54
13.817849 20.84486 -1.1662626 123.54
2.5206065 3.8024507 -1.905531 123.54
14.361624 21.665169 -0.60348064 123.54
2.5517435 3.8494222 -1.803418 123.54
2.6063743 3.9318352 -1.7169411 123.54
2.7491298 4.1471887 -1.6812544 123.54
2.7574427 4.159729 -1.5572891 123.54
35.426102 53.441898 4.4835277 123.54
2.7596755 4.1630969 -1.4322118 123.54
2.8724415 4.33321 -1.3609732 123.54
4.6064415 6.949028 -1.9754318 123.54
5.0110073 7.5593348 -1.9277571 123.54
5.5567131 8.3825569 -1.8948466 123.54
6.3554306 9.5295668 -1.8818949 123.7
6.6933355 10.036233 -1.6954067 123.7
9.8998213 14.844156 -1.6646235 123.7
11.422985 17.128044 -1.4396341 123.7
2.4137416 3.6192529 -1.9368799 123.7
13.907043 20.85273 -1.1688714 123.7
2.532239 3.7969322 -1.9063019 123.7
23.341564 34.999199 -0.97671026 123.7
2.4849575 3.7260365 -1.7488571 123.7
2.6246431 3.9354863 -1.7217294 123.7
2.6040573 3.9046192 -1.5858595 123.7
35.205456 52.788357 2.9589794 123.7
2.81248 4.2171359 -1.5817149 123.7
2.8438258 4.2641373 -1.4696984 123.7
2.9296184 4.3927774 -1.3822464 123.7
4.6258287 6.9361377 -1.9754318 123.7
5.0212431 7.5290365 -1.923599 123.7
5.5713758 8.3539257 -1.8918841 123.7
6.3737788 9.4959202 -1.8789768 123.87
6.7462635 10.050863 -1.701252 123.87
9.9293938 14.793222 -1.6622083 123.87
11.434838 17.036097 -1.4347512 123.87
2.3450456 3.493746 -1.8734289 123.87
13.945471 20.776541 -1.1669148 123.87
2.5825768 3.84763 -1.9355941 123.87
23.474277 34.972954 -0.97791719 123.87
2.5271502 3.765053 -1.7706815 123.87
11.470564 17.089321 0 123.87
2.6205974 3.9042747 -1.7114688 123.87
2.6103513 3.8890095 -1.5826584 123.87
2.8547728 4.2531586 -1.5983958 123.87
2.8521795 4.2492952 -1.4674933 123.87
3.123791 4.6539536 -1.4673389 123.87
4.6268654 6.8932962 -1.9671316 123.87
5.0370183 7.5043592 -1.9211041 123.87
5.5851841 8.3210392 -1.8881811 123.87
6.4107633 9.4900494 -1.8815707 124.04
6.7937937 10.057061 -1.7057055 124.04
6.5883961 9.753005 -1.3763858 124.04
9.978816 14.771947 -1.6631372 124.04
11.462998 16.969028 -1.4319609 124.04
2.3635833 3.4988849 -1.8799368 124.04
13.960085 20.665543 -1.1630018 124.04
2.5991468 3.8475966 -1.9394482 124.04
23.589134 34.919716 -0.9783814 124.04
2.6050527 3.8563395 -1.8172401 124.04
2.5774646 3.8155 -1.6758987 124.04
2.652637 3.9267797 -1.6012251 124.04
35.988903 53.275478 2.9982026 124.04
2.7872255 4.1260152 -1.5537146 124.04
2.9185836 4.3204689 -1.495057 124.04
3.1375859 4.6446643 -1.4673389 124.04
4.6549234 6.8908262 -1.9703594 124.04
5.0559769 7.4845176 -1.9198565 124.04
5.6131492 8.3093166 -1.889292 124.04
6.4416556 9.4714947 -1.8818949 124.22
6.804193 10.004552 -1.7004169 124.22
8.6454802 12.71189 -1.7977805 124.22
10.024055 14.738878 -1.6629515 124.22
11.437712 16.817451 -1.422195 124.22
2.3324361 3.4294996 -1.8465843 124.22
13.924945 20.474558 -1.1547099 124.22
2.5759346 3.7875283 -1.9132395 124.22
23.679605 34.817329 -0.97759223 124.22
2.4652383 3.6247659 -1.7117558 124.22
2.5714712 3.7809651 -1.66427 124.22
2.7395492 4.0280991 -1.6460415 124.22
36.20216 53.229885 3.0020223 124.22
2.8656688 4.2135391 -1.5900553 124.22
2.8078074 4.1284623 -1.4316604 124.22
4.2968202 6.3178339 -2.00018 124.22
4.6754541 6.8745589 -1.9698983 124.22
5.071764 7.4572735 -1.9169458 124.22
5.6303835 8.2786407 -1.8863295 124.22
6.4613442 9.4365549 -1.8789768 124.4
6.7695723 9.8867111 -1.6839945 124.4
7.4025993 10.811224 -1.5322601 124.4
10.074808 14.713886 -1.6636945 124.4
11.490489 16.781435 -1.422195 124.4
2.3008766 3.3603454 -1.8132319 124.4
14.035476 20.498295 -1.1585299 124.4
23.805815 34.767513 -0.97828859 124.4
2.3745179 3.467896 -1.6411904 124.4
2.5928926 3.7868245 -1.6704264 124.4
2.7885864 4.072628 -1.6678095 124.4
2.7634773 4.0359569 -1.5263102 124.4
2.8739853 4.19735 -1.4586729 124.4
4.3100882 6.2947249 -1.9971409 124.4
4.6948295 6.8566251 -1.9689761 124.4
5.0852194 7.4267759 -1.9132034 124.4
5.6685781 8.2787495 -1.8904029 124.4
6.4870749 9.4140921 -1.8783283 124.57
6.7820201 9.8421192 -1.6798193 124.57
7.4335175 10.787577 -1.5320277 124.57
11.50174 16.691412 -1.4174515 124.57
2.3243141 3.3730621 -1.8238071 124.57
14.096233 20.456562 -1.1585299 124.57
2.4450924 3.5483365 -1.7999252 124.57
23.906597 34.693436 -0.97819573 124.57
2.4165096 3.5068572 -1.6630148 124.57
27.604626 40.060043 0 124.57
2.5955861 3.7667341 -1.6649541 124.57
2.7823811 4.0378122 -1.6569256 124.57
2.6400263 3.8312261 -1.4518415 124.57
3.9554734 5.7402129 -1.9989221 124.57
4.323257 6.2739434 -1.9946084 124.57
4.7096314 6.8346529 -1.9666705 124.57
5.0983524 7.3987679 -1.9098768 124.57
5.6808496 8.244092 -1.8863295 124.57
6.5059814 9.3818293 -1.8757343 124.74
6.8157067 9.8284636 -1.6809328 124.74
7.9457211 11.457979 -1.3008586 124.74
11.525064 16.619503 -1.4142427 124.74
2.3311882 3.3616467 -1.8213667 124.74
12.905689 18.610409 -1.0561395 124.74
2.2284527 3.2134986 -1.6334225 124.74
24.023102 34.642067 -0.97875279 124.74
2.3791304 3.4307806 -1.6302782 124.74
2.6131766 3.7682824 -1.6690583 124.74
2.7274058 3.9330046 -1.617231 124.74
2.689461 3.8782871 -1.4726927 124.74
3.9746785 5.7316113 -2.0000246 124.74
4.3418531 6.2610884 -1.9946084 124.74
4.7276716 6.8174505 -1.9657483 124.74
5.0979867 7.3514566 -1.9015603 124.74
5.7030454 8.2239704 -1.8855889 124.74
6.5265093 9.3555317 -1.8741132 124.9
6.8261294 9.7850266 -1.6767576 124.9
6.8545132 9.8257141 -1.4010097 124.9
8.0460482 11.533739 -1.3120056 124.9
11.524628 16.520166 -1.4085227 124.9
2.3917894 3.4285498 -1.8612269 124.9
12.993044 18.625092 -1.0590277 124.9
2.3187208 3.3238084 -1.6927776 124.9
24.15521 34.625683 -0.98019183 124.9
2.5933561 3.7174888 -1.7699541 124.9
27.925295 40.029972 0 124.9
2.6215389 3.7578876 -1.6676903 124.9
2.5985322 3.7249086 -1.5346408 124.9
2.5648298 3.6765974 -1.3988198 124.9
2.7895083 3.9986663 -1.3980327 124.9
4.3582134 6.2473521 -1.9941019 124.9
4.7366695 6.7898569 -1.9615982 124.9
5.1285696 7.3516321 -1.9053028 124.9
5.7237396 8.2047882 -1.8848484 124.9
6.5558686 9.3349819 -1.8741132 125.08
6.9194398 9.8526764 -1.6920666 125.08
6.835115 9.732604 -1.3907884 125.08
8.0559196 11.470923 -1.3077327 125.08
11.547804 16.443062 -1.4050349 125.08
2.3983486 3.4150381 -1.857973 125.08
13.285723 18.917706 -1.0780337 125.08
2.2008147 3.1337674 -1.5995052 125.08
24.27766 34.56926 -0.98074889 125.08
2.4883153 3.543143 -1.6906589 125.08
28.092295 40.000965 0 125.08
2.7197411 3.872673 -1.7224134 125.08
2.600421 3.7027714 -1.5288787 125.08
2.5840483 3.6794584 -1.4029901 125.08
2.8418336 4.0465217 -1.4178785 125.08
4.3744826 6.2288799 -1.9925824 125.08
4.7557402 6.7717576 -1.960676 125.08
5.1392722 7.3178735 -1.9007287 125.08
5.7359328 8.1674652 -1.8804047 125.08
6.5516443 9.2703619 -1.8650345 125.25
6.9623594 9.851511 -1.6954067 125.25
7.9955354 11.313421 -1.62007 125.25
7.9439578 11.24044 -1.2841381 125.25
11.566603 16.366364 -1.4014076 125.25
2.3346558 3.3034616 -1.8010298 125.25
13.301438 18.8211 -1.0747728 125.25
2.2505772 3.1844933 -1.6287974 125.25
24.363968 34.474216 -0.98009902 125.25
2.6310694 3.7228773 -1.7801387 125.25
28.03425 39.667545 0 125.25
2.6043122 3.6850166 -1.6423807 125.25
2.6059282 3.6873028 -1.5256776 125.25
2.8902609 4.0896249 -1.5626509 125.25
2.9359357 4.154253 -1.4586729 125.25
4.3873615 6.2079725 -1.9900498 125.25
4.7758117 6.757617 -1.960676 125.25
5.174511 7.321764 -1.9057186 125.25
5.7703495 8.164856 -1.8837374 125.25
6.581409 9.2540989 -1.8656828 125.42
6.9582715 9.7840042 -1.6873347 125.42
8.0094957 11.262128 -1.6161208 125.42
7.8964853 11.103225 -1.2711332 125.42
8.0583086 11.330764 -0.97226572 125.42
2.2607925 3.1788933 -1.7367655 125.42
13.298171 18.698519 -1.0700213 125.42
2.5070882 3.5252092 -1.8068628 125.42
24.504389 34.455547 -0.98163092 125.42
2.533051 3.5617154 -1.7066635 125.42
2.6315727 3.7002466 -1.6526413 125.42
2.8990779 4.0763845 -1.6902177 125.42
2.9477494 4.1448216 -1.5870767 125.42
2.9270785 4.115756 -1.4481987 125.42
4.4035187 6.1917744 -1.9890369 125.42
4.7777944 6.7180424 -1.9532981 125.42
5.2030153 7.3159442 -1.9082135 125.42
5.7877154 8.1380892 -1.8815156 125.42
6.6070023 9.2285633 -1.8647102 125.6
7.0131855 9.7959137 -1.69318 125.6
6.9011912 9.6394825 -1.3863747 125.6
8.0982552 11.311522 -1.2978861 125.6
11.290066 15.769796 -1.3562053 125.6
2.1633453 3.0217288 -1.6546047 125.6
13.26381 18.526693 -1.0625679 125.6
2.4343555 3.4002717 -1.7467368 125.6
24.618332 34.38652 -0.98186302 125.6
2.3967364 3.3477261 -1.6077265 125.6
11.434059 15.970925 0 125.6
2.62568 3.667511 -1.6416967 125.6
11.236602 15.69512 0.44815403 125.6
2.4850161 3.471034 -1.4424472 125.6
3.0585589 4.27215 -1.6395026 125.6
2.9444706 4.112793 -1.4504038 125.6
4.4240751 6.1794829 -1.9895434 125.6
4.8056736 6.7124934 -1.9560648 125.6
5.2271123 7.3011527 -1.9086293 125.6
5.8166857 8.1246605 -1.8826265 125.6
6.6396675 9.2196856 -1.8666556 125.76
6.9467635 9.6461124 -1.6706339 125.76
7.0511355 9.7910404 -1.4109987 125.76
8.2613125 11.471464 -1.3188797 125.76
11.320067 15.71878 -1.3545312 125.76
2.4589961 3.4145041 -1.8734289 125.76
12.727068 17.672506 -1.0156119 125.76
2.4190361 3.3590167 -1.7290074 125.76
24.697903 34.294926 -0.98121315 125.76
2.3418412 3.2518253 -1.5648053 125.76
11.375761 15.796114 0 125.76
2.4810514 3.4451296 -1.545247 125.76
2.8789253 3.9976077 -1.6646084 125.76
2.7268336 3.7864168 -1.4560118 125.76
39.303684 54.576172 4.7029815 125.76
4.0738325 5.6568279 -1.9989221 125.76
4.4254851 6.145124 -1.9824524 125.76
4.8187132 6.6911511 -1.9537592 125.76
5.2394776 7.2754154 -1.9057186 125.76
5.82442 8.0876522 -1.8778125 125.76
6.7021914 9.2451191 -1.8760586 125.94
6.9816828 9.6306543 -1.6717473 125.94
7.0760303 9.7607994 -1.4098371 125.94
11.361197 15.671832 -1.3535546 125.94
2.4622042 3.3964071 -1.8677347 125.94
13.396968 18.480009 -1.0644313 125.94
2.4880688 3.4320853 -1.770633 125.94
24.812563 34.226879 -0.98149163 125.94
2.547776 3.5144463 -1.6950238 125.94
11.364288 15.676096 0 125.94
2.5039964 3.454056 -1.5527714 125.94
39.695641 54.756855 1.5702102 125.94
2.7435601 3.7845144 -1.5794572 125.94
4.0848136 5.6346626 -1.9956144 125.94
4.4424973 6.128058 -1.9814394 125.94
4.8408523 6.6775556 -1.9542203 125.94
5.256567 7.2509995 -1.9036394 125.94
5.8451848 8.0629492 -1.8763313 125.94
6.6837959 9.1657715 -1.8637375 126.1
7.0552268 9.6751308 -1.6828811 126.1
8.1696711 11.203416 -1.2936131 126.1
11.415496 15.654552 -1.3548102 126.1
2.3349617 3.2020319 -1.7644236 126.1
13.250766 18.171335 -1.0487792 126.1
2.394345 3.2834666 -1.6974027 126.1
11.424973 15.66755 -0.45019656 126.1
2.4719615 3.3899055 -1.6382805 126.1
12.818556 17.578629 0 126.1
2.5014515 3.4303463 -1.545247 126.1
2.6971822 3.69876 -1.5468053 126.1
2.7200072 3.7300608 -1.4405223 126.1
4.1050634 5.629447 -1.9978195 126.1
4.4675727 6.1265712 -1.9849849 126.1
4.8526006 6.6545768 -1.9514536 126.1
5.2710319 7.2283888 -1.9015603 126.1
5.8804164 8.0640631 -1.8804047 126.1
6.7608771 9.2071867 -1.8767071 126.29
7.073205 9.6325245 -1.679541 126.29
6.955636 9.4724159 -1.3742951 126.29
8.1042376 11.036619 -1.2774498 126.29
11.463803 15.611787 -1.3543917 126.29
2.2828457 3.108855 -1.7172421 126.29
11.527802 15.698943 -0.90828365 126.29
2.460927 3.3513718 -1.7367158 126.29
12.930114 17.608658 -0.50720227 126.29
2.4302616 3.3096108 -1.6033616 126.29
12.917026 17.590834 0 126.29
2.5050268 3.4114285 -1.5404587 126.29
2.6937325 3.6684141 -1.537842 126.29
3.0871842 4.2042298 -1.6275876 126.29
39.673405 54.028553 4.6872163 126.29
4.1248465 5.617353 -1.9983709 126.29
4.4764128 6.0961275 -1.9799198 126.29
4.8688822 6.6306052 -1.9491479 126.29
5.2926574 7.207716 -1.9007287 126.29
5.905962 8.0429344 -1.8800343 126.29
6.7776103 9.172801 -1.873789 126.46
7.1300011 9.649725 -1.6862212 126.46
7.0250273 9.5076542 -1.3824257 126.46
8.2280684 11.135847 -1.2917552 126.46
11.527858 15.601774 -1.3564844 126.46
2.3126895 3.129988 -1.7326981 126.46
13.221023 17.893299 -1.0375061 126.46
2.4390554 3.3010116 -1.7143613 126.46
13.002502 17.597553 -0.50799143 126.46
2.483248 3.3608215 -1.6317332 126.46
13.001252 17.595861 0 126.46
2.6167705 3.5415306 -1.6027064 126.46
38.656986 52.318268 1.51028 126.46
2.7091091 3.6665013 -1.5404029 126.46
3.1314127 4.2380462 -1.6442686 126.46
39.773067 53.82877 4.6801014 126.46
4.1403532 5.6035433 -1.9978195 126.46
4.4852824 6.0703697 -1.9758679 126.46
4.8908472 6.6192603 -1.9500703 126.46
5.3047194 7.1793938 -1.897402 126.46
5.9344716 8.0316992 -1.8815156 126.46
6.8342342 9.1922455 -1.8818949 126.63
7.1586008 9.6285276 -1.6862212 126.63
7.0472803 9.4787979 -1.3812641 126.63
8.2456274 11.090611 -1.28934 126.63
11.586002 15.583512 -1.3578795 126.63
2.4037254 3.2330811 -1.7937086 126.63
2.436727 3.2774692 -1.705882 126.63
13.041535 17.541246 -0.5074808 126.63
2.5021012 3.3653994 -1.6375531 126.63
12.913788 17.369423 0 126.63
2.6653922 3.5850303 -1.6259638 126.63
2.8590269 3.845475 -1.6191517 126.63
2.8728628 3.8640845 -1.5024803 126.63
39.845707 53.593643 4.6699171 126.63
4.156961 5.5912342 -1.9978195 126.63
4.5021195 6.0554824 -1.9753613 126.63
4.9139485 6.609405 -1.9514536 126.63
5.3294992 7.1683326 -1.8986496 126.63
5.9442043 7.9951286 -1.877072 126.63
6.8709359 9.1845694 -1.8844888 126.8
7.6272879 10.195606 -1.7894877 126.8
8.4431133 11.286142 -1.3149782 126.8
11.647725 15.569836 -1.3596932 126.8
2.4680312 3.2990854 -1.8343823 126.8
13.242002 17.700949 -1.0308912 126.8
2.469656 3.3012571 -1.7220697 126.8
13.04801 17.441635 -0.5057168 126.8
2.5567148 3.4176314 -1.6666522 126.8
2.7323072 3.6523504 -1.6601658 126.8
2.8227539 3.773253 -1.5922619 126.8
2.8580108 3.8203819 -1.488778 126.8
40.012913 53.486362 4.6708937 126.8
4.1712289 5.5757966 -1.996717 126.8
4.5049996 6.0219574 -1.9687768 126.8
4.9172168 6.5729795 -1.9449979 126.8
5.3589478 7.1634531 -1.9015603 126.8
5.9643679 7.9727354 -1.8759611 126.8
6.8953705 9.1637697 -1.8841646 126.96
7.646203 10.161607 -1.787261 126.96
8.4084034 11.174552 -1.6354018 126.96
8.280632 11.004746 -1.2848812 126.96
11.663568 15.500582 -1.3564844 126.96
2.4673474 3.2790408 -1.8270611 126.96
13.123211 17.440409 -1.0178479 126.96
2.3723428 3.1527822 -1.6480685 126.96
13.215682 17.563301 -0.5103125 126.96
2.458715 3.2675686 -1.5968143 126.96
2.6972959 3.5846367 -1.6328042 126.96
41.270004 54.846771 1.5936067 126.96
2.7375839 3.6381783 -1.5384822 126.96
2.9099936 3.8673062 -1.5102249 126.96
40.2197 53.450943 4.6775899 126.96
4.1879392 5.5656629 -1.9972683 126.96
40.458477 53.768272 6.277823 126.96
4.5252886 6.0139918 -1.9702963 126.96
4.9343829 6.5576673 -1.9445368 126.96
5.3706975 7.1375179 -1.8986496 126.96
5.9854269 7.9544783 -1.8755907 126.96
6.9102273 9.1204042 -1.8799495 127.15
7.0603023 9.3184795 -1.6430776 127.15
7.7628226 10.245695 -1.5032223 127.15
7.8552866 10.367733 -1.2135402 127.15
11.652253 15.379127 -1.3492297 127.15
2.4870346 3.2824912 -1.8335688 127.15
13.24733 17.484375 -1.0229721 127.15
2.3069992 3.0448732 -1.595651 127.15
22.68376 29.938967 -0.87207597 127.15
2.4166586 3.1896062 -1.5626228 127.15
2.7034934 3.5681827 -1.6293839 127.15
2.7095847 3.5762222 -1.5160741 127.15
40.442513 53.377705 4.6828914 127.15
4.2075334 5.553277 -1.9978195 127.15
40.563202 53.536991 6.26649 127.15
4.5288486 5.9773622 -1.9632052 127.15
4.9537511 6.538166 -1.9436146 127.15
5.4037881 7.132143 -1.9019761 127.15
6.0153332 7.9392858 -1.8767016 127.15
6.922121 9.0865831 -1.8767071 127.3
7.7884154 10.223757 -1.50299 127.3
10.433443 13.695852 -1.6062874 127.3
11.669504 15.318414 -1.346579 127.3
2.514442 3.3006768 -1.8473978 127.3
13.262793 17.409903 -1.0206429 127.3
2.5475774 3.3441734 -1.7559869 127.3
13.345117 17.517969 -0.51128739 127.3
2.7015953 3.5463507 -1.7408549 127.3
30.427889 39.942314 0 127.3
