# .PCD v0.7 - Point Cloud Data file format
VERSION 0.7
FIELDS x y z intensity
SIZE 4 4 4 4
TYPE F F F F
COUNT 1 1 1 1
WIDTH 1171
HEIGHT 1
VIEWPOINT 0 0 0 1 0 0 0
POINTS 1171
DATA ascii
-3.6598153 -6.44244 -2.1246128 299.60001
-25.194246 -44.349892 4.7586679 299.60001
-4.0138526 -7.0656586 -2.1273122 299.60001
-25.194204 -44.349819 5.9648027 299.60001
-4.4650922 -7.8599834 -2.1418955 299.60001
-25.232512 -44.417252 7.1793838 299.60001
-5.0063801 -8.8128223 -2.154381 299.60001
-5.7452126 -10.113403 -2.1914601 299.60001
-6.8171792 -11.917932 -2.2557449 299.76999
-8.2406816 -14.406527 -2.3325412 299.76999
-10.460886 -18.287935 -2.4637885 299.76999
-12.53037 -21.905848 -2.354439 299.76999
-17.833143 -31.176262 -2.511512 299.76999
-2.3505197 -4.1092267 -2.1077092 299.76999
-25.054951 -43.801575 -2.3532083 299.76999
-2.5042942 -4.378058 -2.1067219 299.76999
-25.096272 -43.873814 -1.1734914 299.76999
-2.6853237 -4.6945376 -2.1118686 299.76999
-25.13084 -43.934246 0 299.76999
-2.8815718 -5.0376225 -2.1123164 299.76999
-25.133997 -43.939766 1.1752554 299.76999
-3.1092892 -5.4357224 -2.1159732 299.76999
-25.158115 -43.98193 2.3628976 299.76999
-3.3671539 -5.8865271 -2.1161022 299.76999
-25.172647 -44.007332 3.5451634 299.76999
-3.6779599 -6.429884 -2.1240613 299.76999
-25.192244 -44.041592 4.7335873 299.76999
-4.0376811 -7.0587564 -2.1288316 299.76999
-25.188583 -44.035194 5.9325132 299.76999
-4.4874272 -7.8450112 -2.1414344 299.76999
-25.224548 -44.098068 7.1398582 299.76999
-5.0373631 -8.8064203 -2.15646 299.76999
-5.779098 -10.103137 -2.1929414 299.76999
-6.8553572 -11.907399 -2.2573659 299.92999
-8.29175 -14.402339 -2.335603 299.92999
-10.520835 -18.274145 -2.4658794 299.92999
-12.574603 -21.841433 -2.3512807 299.92999
-18.383018 -31.930349 -2.5763855 299.92999
-2.3610742 -4.1010633 -2.1068959 299.92999
-25.054564 -43.518478 -2.341749 299.92999
-2.5128269 -4.3646502 -2.1036384 299.92999
-25.088005 -43.576561 -1.1674101 299.92999
-2.6993525 -4.6886349 -2.1125963 299.92999
-25.128695 -43.647236 0 299.92999
-2.8975036 -5.0328135 -2.1136844 299.92999
-25.130903 -43.651073 1.1694063 299.92999
-3.1235111 -5.4253764 -2.1153331 299.92999
-25.130322 -43.650063 2.3488295 299.92999
-3.3854842 -5.8804107 -2.1172936 299.92999
-25.156076 -43.694798 3.5256317 299.92999
-3.6949418 -6.417922 -2.1235101 299.92999
-25.166096 -43.712204 4.7057195 299.92999
-4.0583425 -7.0491304 -2.1293383 299.92999
-25.184589 -43.744328 5.9027786 299.92999
-4.5112591 -7.8358226 -2.1423566 299.92999
-25.215181 -43.797459 7.10256 299.92999
-5.0629115 -8.794014 -2.1568758 299.92999
-5.8112111 -10.093772 -2.1944227 299.92999
-6.8966913 -11.892632 -2.2586629 300.10999
-8.3280134 -14.360799 -2.3330979 300.10999
-10.583176 -18.249594 -2.4670408 300.10999
-12.632169 -21.782871 -2.349237 300.10999
-14.183462 -24.457916 -1.977038 300.10999
-2.3730297 -4.0920448 -2.1060824 300.10999
-25.060867 -43.214878 -2.3296373 300.10999
-2.5302298 -4.3631201 -2.1067219 300.10999
-25.092377 -43.269215 -1.1612824 300.10999
-2.7131343 -4.6785202 -2.1118686 300.10999
-25.122215 -43.320667 0 300.10999
-2.9123576 -5.0220599 -2.1130004 300.10999
-25.130493 -43.334942 1.1630465 300.10999
-3.1395893 -5.413898 -2.1146929 300.10999
-25.146057 -43.361782 2.3375564 300.10999
-3.3981948 -5.8598361 -2.1137192 300.10999
-25.150097 -43.368748 3.5056813 300.10999
-3.7141216 -6.4046192 -2.1229589 300.10999
-25.178425 -43.417595 4.6824965 300.10999
-4.0756149 -7.0279775 -2.1268058 300.10999
-25.178392 -43.417538 5.8693271 300.10999
-4.5319486 -7.8148775 -2.1405122 300.10999
-25.216532 -43.483307 7.0644264 300.10999
-5.0934577 -8.7831421 -2.1581233 300.10999
-5.8428931 -10.075466 -2.1944227 300.10999
-6.9408178 -11.892076 -2.2622297 300.26999
-8.37607 -14.351171 -2.3353245 300.26999
-10.645111 -18.238842 -2.4695961 300.26999
-12.696964 -21.754391 -2.3499801 300.26999
-14.191364 -24.314827 -1.9686671 300.26999
-2.3853686 -4.0869803 -2.1068959 300.26999
-25.041468 -42.904892 -2.3166869 300.26999
-2.5433342 -4.3576312 -2.1074927 300.26999
-25.070999 -42.95549 -1.154737 300.26999
-2.7252495 -4.6693163 -2.1111412 300.26999
-25.09691 -42.999886 0 300.26999
-2.9263704 -5.0139074 -2.1130004 300.26999
-25.123409 -43.045284 1.157151 300.26999
-3.1575608 -5.4100184 -2.1166136 300.26999
-25.13311 -43.061905 2.3251653 300.26999
-3.4193571 -5.8585682 -2.116698 300.26999
-25.145395 -43.082958 3.4882421 300.26999
-3.7319922 -6.3942227 -2.1229589 300.26999
-25.163055 -43.113216 4.6572299 300.26999
-4.0962 -7.0182395 -2.1273122 300.26999
-25.169365 -43.124027 5.839128 300.26999
-4.5537539 -7.8021913 -2.1405122 300.26999
-25.197096 -43.171539 7.0251799 300.26999
-5.1219096 -8.7756424 -2.1597867 300.26999
-5.8769503 -10.069295 -2.1966445 300.26999
-6.9781437 -11.870213 -2.2622297 300.45001
-8.4261332 -14.333323 -2.3367164 300.45001
-10.710412 -18.219009 -2.4714546 300.45001
-12.760199 -21.705811 -2.3490512 300.45001
-14.304081 -24.332041 -1.9736897 300.45001
-2.3981965 -4.0794663 -2.1068959 300.45001
-2.555141 -4.3464379 -2.1059511 300.45001
-25.073082 -42.650711 -1.1486558 300.45001
-2.738961 -4.6591253 -2.1104138 300.45001
-25.102137 -42.700138 0 300.45001
-2.9421077 -5.0046892 -2.1130004 300.45001
-25.120707 -42.731728 1.1508377 300.45001
-3.1726208 -5.3968053 -2.1153331 300.45001
-25.13361 -42.753674 2.3127739 300.45001
-3.4338753 -5.8412137 -2.114315 300.45001
-25.14311 -42.769836 3.4692686 300.45001
-3.755959 -6.3890963 -2.125164 300.45001
-25.166172 -42.809063 4.6328921 300.45001
-4.1172476 -7.0036683 -2.1268058 300.45001
-25.169819 -42.815269 5.8079996 300.45001
-4.5792289 -7.7895246 -2.1409733 300.45001
-25.201113 -42.8685 6.9887166 300.45001
-5.1494536 -8.7595091 -2.1597867 300.45001
-5.9115434 -10.055865 -2.1977553 300.45001
-7.0173535 -11.856249 -2.2635267 300.62
-8.4736671 -14.316781 -2.3381081 300.62
-10.775551 -18.205954 -2.47401 300.62
-12.832659 -21.681564 -2.3505375 300.62
-14.311176 -24.179609 -1.9647608 300.62
-2.4112206 -4.073905 -2.1077092 300.62
-25.044624 -42.31443 -2.2930226 300.62
-2.5699058 -4.3420138 -2.1074927 300.62
-25.063051 -42.345562 -1.1424353 300.62
-2.7527728 -4.6509786 -2.1104138 300.62
-25.092216 -42.39484 0 300.62
-2.954072 -4.991086 -2.1109483 300.62
-25.119064 -42.440201 1.1449885 300.62
-3.1866894 -5.3841071 -2.1140525 300.62
-25.130102 -42.458847 2.3008487 300.62
-3.455081 -5.8375716 -2.116698 300.62
-25.132713 -42.463261 3.4504342 300.62
-3.7709825 -6.3713059 -2.1229589 300.62
-25.155136 -42.501144 4.607626 300.62
-4.1439228 -7.0014119 -2.1298447 300.62
-25.165211 -42.518169 5.7778006 300.62
-4.6052947 -7.7809277 -2.1423566 300.62
-25.194029 -42.566856 6.9516964 300.62
-5.1794066 -8.7509251 -2.1614499 300.62
-5.94736 -10.048429 -2.1999772 300.62
-7.0606294 -11.844316 -2.2654722 300.79999
-8.5186033 -14.29009 -2.3381081 300.79999
-10.842865 -18.189075 -2.4763329 300.79999
-12.893573 -21.629169 -2.349237 300.79999
-14.360506 -24.089973 -1.9611335 300.79999
-2.4230716 -4.0647402 -2.1068959 300.79999
-25.050587 -42.022751 -2.2814698 300.79999
-2.5844789 -4.3355036 -2.1082635 300.79999
-25.072079 -42.058804 -1.1368183 300.79999
-2.7683246 -4.6439075 -2.1111412 300.79999
-25.096245 -42.099342 0 300.79999
-2.9726243 -4.9866238 -2.1130004 300.79999
-25.121222 -42.141243 1.1390465 300.79999
-3.207469 -5.3805795 -2.1166136 300.79999
-25.131401 -42.158318 2.28883 300.79999
-3.4704704 -5.8217683 -2.1149106 300.79999
-25.144423 -42.180161 3.4338322 300.79999
-3.7899954 -6.3577766 -2.1224077 300.79999
-25.165154 -42.214939 4.585146 300.79999
-4.1678791 -6.9916825 -2.1308577 300.79999
-25.165415 -42.215378 5.7473688 300.79999
-4.6277232 -7.7630782 -2.1414344 300.79999
-25.202896 -42.278252 6.91746 300.79999
-5.209878 -8.7396517 -2.1626973 300.79999
-5.9839306 -10.038136 -2.2018287 300.79999
-7.0977721 -11.826699 -2.2661207 300.97
-8.5711565 -14.281734 -2.3408916 300.97
-10.907007 -18.173857 -2.4786558 300.97
-12.951543 -21.580574 -2.3481224 300.97
-14.433972 -24.05068 -1.9614125 300.97
-2.4351213 -4.0575333 -2.1068959 300.97
-25.042542 -41.727261 -2.2694514 300.97
-2.5982809 -4.3293986 -2.1090343 300.97
-25.072262 -41.776783 -1.1312013 300.97
-2.7820911 -4.6356735 -2.1111412 300.97
-25.09137 -41.80862 0 300.97
-2.9864397 -4.9761705 -2.1123164 300.97
-25.106216 -41.833359 1.1327332 300.97
-3.2214694 -5.3677897 -2.1153331 300.97
-25.11759 -41.85231 2.2762525 300.97
-3.4847813 -5.8065348 -2.1131234 300.97
-25.133942 -41.879559 3.4154165 300.97
-3.8088427 -6.3465033 -2.1224077 300.97
-25.145811 -41.899334 4.5589504 300.97
-4.1866145 -6.9759674 -2.1298447 300.97
-25.164827 -41.931023 5.7187958 300.97
-4.6517377 -7.7509818 -2.1418955 300.97
-25.194715 -41.980824 6.8809962 300.97
-5.2377996 -8.7275105 -2.1635292 300.97
-25.197142 -41.984867 8.0447445 300.97
-6.0136881 -10.020338 -2.2018287 300.97
-7.1430373 -11.822479 -2.2693629 301.14001
-8.6186142 -14.264715 -2.3422832 301.14001
-10.977319 -18.168619 -2.4823728 301.14001
-13.002129 -21.519894 -2.3457072 301.14001
-14.503205 -24.004333 -1.9611335 301.14001
-2.4462047 -4.0487261 -2.1060824 301.14001
-25.027798 -41.423641 -2.2569671 301.14001
-2.6101608 -4.3200908 -2.1082635 301.14001
-25.065825 -41.48658 -1.1253521 301.14001
-2.7967966 -4.628993 -2.1118686 301.14001
-25.082922 -41.514877 0 301.14001
-2.9982755 -4.9624619 -2.1102643 301.14001
-25.112354 -41.563591 1.1274412 301.14001
-3.242281 -5.3663163 -2.1185343 301.14001
-25.111481 -41.562145 2.2645135 301.14001
-3.5059435 -5.8027058 -2.1155064 301.14001
-25.139439 -41.608421 3.3993726 301.14001
-3.8276563 -6.3351741 -2.1224077 301.14001
-25.15571 -41.635353 4.5383282 301.14001
-4.2092953 -6.9668269 -2.1308577 301.14001
-25.152502 -41.630043 5.6878996 301.14001
-4.6737084 -7.7354798 -2.1414344 301.14001
-25.188066 -41.688904 6.8453679 301.14001
-5.2667065 -8.7169542 -2.1647766 301.14001
-25.200153 -41.708908 8.0061598 301.14001
-6.0474577 -10.00918 -2.20331 301.14001
-7.1842375 -11.81135 -2.2713084 301.31
-8.6691341 -14.252617 -2.3445101 301.31
-11.062146 -18.186884 -2.4893417 301.31
-13.070062 -21.488026 -2.3464503 301.31
-14.550517 -23.921989 -1.9579247 301.31
-2.459156 -4.0430117 -2.1068959 301.31
-25.016665 -41.129013 -2.2449484 301.31
-2.62009 -4.3075972 -2.1059511 301.31
-25.058926 -41.19849 -1.1195495 301.31
-2.8076143 -4.6158991 -2.1096864 301.31
-25.073992 -41.223263 0 301.31
-3.013963 -4.9551497 -2.1109483 301.31
-25.106722 -41.277073 1.1216849 301.31
-3.2512963 -5.3453412 -2.1140525 301.31
-25.115294 -41.291164 2.2537994 301.31
-3.5191765 -5.7857533 -2.1131234 301.31
-25.139404 -41.330803 3.3827705 301.31
-3.845437 -6.3221469 -2.1218565 301.31
-25.149778 -41.347862 4.5151052 301.31
-4.2289419 -6.9526539 -2.1303513 301.31
-25.15926 -41.363449 5.6616497 301.31
-4.6976509 -7.7232413 -2.1418955 301.31
-25.179909 -41.397396 6.8097401 301.31
-5.2966137 -8.7079744 -2.1664398 301.31
-25.188417 -41.411385 7.9633598 301.31
-6.0812144 -9.9979095 -2.2047911 301.31
-7.2233729 -11.796715 -2.2726054 301.48001
-8.7175903 -14.236967 -2.3461802 301.48001
-11.145104 -18.201416 -2.4958463 301.48001
-13.13168 -21.445755 -2.3460786 301.48001
-14.739161 -24.07098 -1.9736897 301.48001
-2.4692328 -4.0325809 -2.105269 301.48001
-25.01548 -40.853558 -2.2339549 301.48001
-2.6338232 -4.3013783 -2.1067219 301.48001
-25.056803 -40.92104 -1.1140252 301.48001
-2.8183789 -4.6027822 -2.1075039 301.48001
-25.073999 -40.949123 0 301.48001
-3.0306146 -4.9493909 -2.1123164 301.48001
-25.095434 -40.984135 1.1157429 301.48001
-3.2691207 -5.3389025 -2.1153331 301.48001
-25.102072 -40.994972 2.2416878 301.48001
-3.5393186 -5.7801709 -2.1149106 301.48001
-25.113979 -41.01442 3.3629596 301.48001
-3.8661861 -6.3139887 -2.1229589 301.48001
-25.148603 -41.070965 4.4929972 301.48001
-4.2495522 -6.9400759 -2.1303513 301.48001
-25.153248 -41.078548 5.6328444 301.48001
-4.7215619 -7.7109289 -2.1423566 301.48001
-25.178518 -41.11982 6.7763381 301.48001
-5.3244705 -8.6955576 -2.1672714 301.48001
-25.167925 -41.10252 7.9182901 301.48001
-6.115984 -9.988203 -2.2066426 301.48001
-7.2583261 -11.770604 -2.2719569 301.66
-8.7643528 -14.212881 -2.3467369 301.66
-11.184505 -18.137569 -2.4918971 301.66
-13.184357 -21.380665 -2.3434777 301.66
-14.768633 -23.949837 -1.9675511 301.66
-2.4847665 -4.029469 -2.1077092 301.66
-25.021013 -40.575809 -2.2230544 301.66
-2.6473234 -4.2930827 -2.1067219 301.66
-25.046705 -40.61747 -1.1078976 301.66
-2.8377144 -4.6018338 -2.1111412 301.66
-25.08075 -40.672676 0 301.66
-3.0471351 -4.9414454 -2.1130004 301.66
-25.098129 -40.700863 1.1101723 301.66
-3.2858772 -5.3286061 -2.1153331 301.66
-25.104902 -40.711849 2.2305076 301.66
-3.5584621 -5.7706485 -2.1155064 301.66
-25.12542 -40.745121 3.3473341 301.66
-3.883985 -6.2985387 -2.1218565 301.66
-25.157309 -40.796829 4.471632 301.66
-4.2693033 -6.9233975 -2.1293383 301.66
-25.149759 -40.784588 5.6033421 301.66
-4.7478061 -7.6993709 -2.1432788 301.66
-25.18387 -40.839909 6.7432151 301.66
-5.3538156 -8.6821175 -2.1681032 301.66
-25.181948 -40.836788 7.8822994 301.66
-6.1524906 -9.9773045 -2.2084942 301.66
-7.3026133 -11.768735 -2.2755237 301.82001
-8.8207159 -14.215277 -2.3511903 301.82001
-11.219401 -18.080946 -2.4884126 301.82001
-13.250311 -21.353916 -2.3445923 301.82001
-14.850183 -23.932236 -1.9695042 301.82001
-2.4960091 -4.0225148 -2.1077092 301.82001
-25.025728 -40.330929 -2.2134581 301.82001
-2.6583285 -4.2841053 -2.1059511 301.82001
-25.043015 -40.358784 -1.1027448 301.82001
-2.8485894 -4.5907254 -2.1096864 301.82001
-25.064526 -40.393452 0 301.82001
-3.0619133 -4.9345136 -2.1136844 301.82001
-25.088346 -40.431839 1.104741 301.82001
-3.3017437 -5.3210192 -2.1159732 301.82001
-25.097357 -40.446362 2.2197936 301.82001
-3.5725496 -5.7574444 -2.114315 301.82001
-25.113924 -40.473061 3.3307321 301.82001
-3.9025722 -6.2893019 -2.1224077 301.82001
-25.134644 -40.506451 4.4474802 301.82001
-4.2886205 -6.9114485 -2.1293383 301.82001
-25.133678 -40.504898 5.5745368 301.82001
-4.7651839 -7.6794677 -2.1414344 301.82001
-25.156845 -40.542233 6.7056384 301.82001
-5.3801026 -8.6704578 -2.1689348 301.82001
-25.178305 -40.576813 7.8456602 301.82001
-6.1824007 -9.9634247 -2.2092347 301.82001
-7.3426876 -11.750756 -2.2764962 302
-8.8684797 -14.192534 -2.3520255 302
-11.264569 -18.027079 -2.4858572 302
-13.308888 -21.298674 -2.3431063 302
-15.226613 -24.367674 -2.0092654 302
-2.5076656 -4.013104 -2.1068959 302
-25.073965 -40.126732 -2.2065637 302
-2.6727521 -4.2772975 -2.1067219 302
-25.073261 -40.125607 -1.0985205 302
-2.8639848 -4.583334 -2.1104138 302
-25.06624 -40.114372 0 302
-3.0764043 -4.9232764 -2.1130004 302
-25.090216 -40.152737 1.0992632 302
-3.3154316 -5.3058 -2.1140525 302
-25.094082 -40.158924 2.208334 302
-3.5896077 -5.7445731 -2.1137192 302
-25.11725 -40.196003 3.314409 302
-3.9233301 -6.2786407 -2.1229589 302
-25.139364 -40.231392 4.4259291 302
-4.3133879 -6.9028635 -2.1308577 302
-25.136591 -40.226955 5.5471249 302
-4.7913485 -7.6677604 -2.1423566 302
-25.163393 -40.269848 6.6736283 302
-5.4114618 -8.6601496 -2.170598 302
-25.166561 -40.274918 7.802536 302
-6.2178373 -9.9506197 -2.210716 302
-7.3838248 -11.738941 -2.2784417 302.17001
-8.9116058 -14.167835 -2.3523037 302.17001
-11.302142 -17.968355 -2.4823728 302.17001
-13.383687 -21.277634 -2.3451498 302.17001
-14.517014 -23.079416 -1.9065839 302.17001
-2.517616 -4.0025525 -2.105269 302.17001
-25.238653 -40.124878 -2.2105699 302.17001
-2.6854315 -4.2693486 -2.1067219 302.17001
-25.234791 -40.118736 -1.1003773 302.17001
-2.8755875 -4.5716619 -2.1089587 302.17001
-25.058434 -39.83836 0 302.17001
-3.0899978 -4.9125357 -2.1123164 302.17001
-25.086813 -39.88348 1.0939248 302.17001
-3.3301508 -5.2943354 -2.1134124 302.17001
-25.093988 -39.89489 2.1978993 302.17001
-3.6096861 -5.7387457 -2.1155064 302.17001
-25.112118 -39.92371 3.2980862 302.17001
-3.9409184 -6.2653451 -2.1224077 302.17001
-25.12715 -39.947609 4.4028921 302.17001
-4.3328199 -6.8883972 -2.1303513 302.17001
-25.13209 -39.95546 5.5199456 302.17001
-4.8171868 -7.6584525 -2.1437399 302.17001
-25.163607 -40.005569 6.6421752 302.17001
-5.4412994 -8.6506786 -2.1722612 302.17001
-25.16511 -40.007957 7.7652483 302.17001
-6.2515197 -9.9387817 -2.2121973 302.17001
-7.4291797 -11.733656 -2.2816842 302.34
-8.9567814 -14.146352 -2.3531387 302.34
-11.342654 -17.914602 -2.4795852 302.34
-13.435042 -21.219322 -2.3431063 302.34
-14.520324 -22.933416 -1.8980737 302.34
-2.5294807 -3.9950652 -2.105269 302.34
-2.6970997 -4.2598028 -2.1059511 302.34
-2.8901358 -4.5646839 -2.1096864 302.34
-25.059908 -39.579651 0 302.34
-3.1035547 -4.9017582 -2.1116323 302.34
-25.076689 -39.606152 1.0883541 302.34
-3.3488855 -5.2892342 -2.1153331 302.34
-25.089346 -39.626144 2.187185 302.34
-3.6256762 -5.7263975 -2.1149106 302.34
-25.105591 -39.651802 3.2817631 302.34
-3.9574337 -6.2503757 -2.121305 302.34
-25.131582 -39.692852 4.3830132 302.34
-4.3532391 -6.8755112 -2.1303513 302.34
-25.129387 -39.689384 5.4934635 302.34
-4.8419704 -7.6474147 -2.1446621 302.34
-25.160355 -39.738297 6.6101656 302.34
-5.467989 -8.6361494 -2.1726773 302.34
-25.15596 -39.731358 7.7260151 302.34
-6.2799296 -9.9185295 -2.211827 302.34
-7.475554 -11.725236 -2.2846024 302.51999
-9.0128908 -14.136514 -2.3562007 302.51999
-11.35723 -17.813555 -2.4705253 302.51999
-13.510202 -21.190443 -2.3445923 302.51999
-14.678104 -23.02227 -1.9092346 302.51999
-2.5439837 -3.99018 -2.1068959 302.51999
-23.678934 -37.139866 -2.0540497 302.51999
-2.7094769 -4.2497525 -2.1051803 302.51999
-2.9034603 -4.5540109 -2.1089587 302.51999
-25.055105 -39.298359 0 302.51999
-3.1209593 -4.8951535 -2.1130004 302.51999
-25.079527 -39.336662 1.0831085 302.51999
-3.3654857 -5.278687 -2.1153331 302.51999
-25.088051 -39.350033 2.1762846 302.51999
-3.6385162 -5.7069292 -2.111932 302.51999
-25.110981 -39.386002 3.2662771 302.51999
-3.9770503 -6.2379122 -2.121305 302.51999
-25.119127 -39.398777 4.3592329 302.51999
-4.3727374 -6.8585386 -2.1293383 302.51999
-25.120462 -39.400871 5.4644256 302.51999
-4.8712029 -7.6403704 -2.1469679 302.51999
-25.15624 -39.456989 6.5764856 302.51999
-5.4993 -8.6255264 -2.1743405 302.51999
-25.157585 -39.459095 7.6884031 302.51999
-6.3216248 -9.9153233 -2.2155299 302.51999
-7.5114646 -11.709297 -2.2855749 302.67999
-9.0608873 -14.124626 -2.3584273 302.67999
-11.354374 -17.699842 -2.4591427 302.67999
-13.554272 -21.129168 -2.3419914 302.67999
-14.641075 -22.823338 -1.8961204 302.67999
-2.5541298 -3.9815226 -2.1060824 302.67999
-24.990725 -38.956959 -2.1583965 302.67999
-2.7213337 -4.2421694 -2.1051803 302.67999
-25.02302 -39.007301 -1.0759596 302.67999
-2.9161661 -4.5458851 -2.1089587 302.67999
-25.03948 -39.032963 0 302.67999
-3.1325874 -4.883255 -2.1116323 302.67999
-25.07592 -39.089767 1.0782342 302.67999
-3.3802133 -5.269268 -2.1153331 302.67999
-25.087809 -39.108299 2.1667814 302.67999
-3.6565006 -5.6999602 -2.1131234 302.67999
-25.089445 -39.110847 3.2492566 302.67999
-4.0006828 -6.2364912 -2.1246128 302.67999
-25.117229 -39.154163 4.339911 302.67999
-4.3908281 -6.8446722 -2.1288316 302.67999
-25.123135 -39.163364 5.4411955 302.67999
-4.8946214 -7.6300135 -2.1478901 302.67999
-25.148695 -39.203213 6.5458674 302.67999
-5.5254784 -8.6134291 -2.1751721 302.67999
-25.144066 -39.195995 7.6507912 302.67999
-6.3503499 -9.8992863 -2.2159002 302.67999
-7.5557094 -11.697247 -2.2878447 302.85999
-9.1095152 -14.102745 -2.3595407 302.85999
-11.358188 -17.58399 -2.4479921 302.85999
-13.638952 -21.114918 -2.3451498 302.85999
-14.746263 -22.829182 -1.9004453 302.85999
-2.5656343 -3.9719441 -2.105269 302.85999
-24.999166 -38.702045 -2.1486139 302.85999
-2.7346475 -4.2335992 -2.1051803 302.85999
-25.022848 -38.738708 -1.070714 302.85999
-2.9334655 -4.5413961 -2.1111412 302.85999
-25.036102 -38.759228 0 302.85999
-3.1479132 -4.8733897 -2.1116323 302.85999
-25.068413 -38.80925 1.0726637 302.85999
-3.3946943 -5.2554398 -2.1140525 302.85999
-25.075047 -38.819519 2.1551356 302.85999
-3.6733534 -5.6868415 -2.1125276 302.85999
-25.09203 -38.84581 3.2337706 302.85999
-4.0160828 -6.2174325 -2.1224077 302.85999
-25.12558 -38.897751 4.3202181 302.85999
-4.4133596 -6.8324695 -2.1293383 302.85999
-25.11455 -38.880672 5.4128547 302.85999
-4.9164557 -7.6113296 -2.1469679 302.85999
-25.142778 -38.924374 6.512466 302.85999
-5.5546336 -8.5993147 -2.1760037 302.85999
-25.16214 -38.95435 7.6190157 302.85999
-6.391016 -9.894146 -2.219233 302.85999
-7.5925336 -11.678085 -2.2884932 303.03
-9.1556368 -14.082296 -2.3606541 303.03
-11.357254 -17.468607 -2.4366093 303.03
-13.696115 -21.06601 -2.3442209 303.03
-14.895495 -22.91078 -1.9109088 303.03
-2.5774078 -3.9643142 -2.105269 303.03
-24.99519 -38.445133 -2.1384587 303.03
-2.7502146 -4.2301087 -2.1074927 303.03
-25.019974 -38.48325 -1.0657004 303.03
-2.9428654 -4.5264249 -2.1082313 303.03
-25.026716 -38.493622 0 303.03
-3.1654322 -4.8687553 -2.1136844 303.03
-25.073376 -38.565392 1.067975 303.03
-3.4113054 -5.246933 -2.1146929 303.03
-25.073597 -38.565731 2.1451669 303.03
-3.6933324 -5.6807194 -2.114315 303.03
-25.089727 -38.590538 3.2187033 303.03
-4.0387044 -6.211936 -2.1246128 303.03
-25.113884 -38.627697 4.2984815 303.03
-4.4357219 -6.8225889 -2.1303513 303.03
-25.111776 -38.624454 5.3875341 303.03
-4.9453821 -7.6064982 -2.1497345 303.03
-25.142647 -38.671936 6.4826832 303.03
-5.5854554 -8.5909958 -2.1780829 303.03
-25.140989 -38.669388 7.577837 303.03
-6.4203444 -9.8751392 -2.219233 303.03
-7.6367507 -11.665734 -2.2907629 303.20999
-9.2074261 -14.065063 -2.3626025 303.20999
-11.355501 -17.346416 -2.4245298 303.20999
-13.761137 -21.021212 -2.3440351 303.20999
-14.943358 -22.827148 -1.9078395 303.20999
-2.5888486 -3.9546688 -2.1044555 303.20999
-24.999857 -38.18924 -2.1285832 303.20999
-2.7594471 -4.2152715 -2.1044092 303.20999
-25.021379 -38.222115 -1.0606405 303.20999
-2.9529893 -4.5109224 -2.1053214 303.20999
-25.025932 -38.229069 0 303.20999
-3.1776242 -4.8540692 -2.1116323 303.20999
-25.06628 -38.290703 1.0625437 303.20999
-3.4277723 -5.2361903 -2.1146929 303.20999
-25.077547 -38.307915 2.1351979 303.20999
-3.7090693 -5.6658936 -2.1131234 303.20999
-25.092821 -38.331245 3.2036359 303.20999
-4.0560937 -6.1960006 -2.1235101 303.20999
-25.121681 -38.375336 4.27916 303.20999
-4.4539542 -6.8037639 -2.1288316 303.20999
-25.108963 -38.355904 5.3610516 303.20999
-4.971386 -7.5941806 -2.1506567 303.20999
-25.147943 -38.415451 6.4528999 303.20999
-5.6134892 -8.5750437 -2.1784987 303.20999
-25.144527 -38.410233 7.5424948 303.20999
-6.4567184 -9.863143 -2.2210846 303.20999
-7.6714687 -11.647659 -2.2914114 303.37
-9.2499352 -14.044258 -2.3634377 303.37
-11.366747 -17.258232 -2.4166315 303.37
-13.826357 -20.992682 -2.3451498 303.37
-16.592798 -25.192993 -2.1094358 303.37
-2.6008871 -3.9489498 -2.105269 303.37
-24.987724 -37.939083 -2.118521 303.37
-2.7752681 -4.2137141 -2.1074927 303.37
-25.022438 -37.991791 -1.0561839 303.37
-2.9706984 -4.5104375 -2.1089587 303.37
-25.030281 -38.003696 0 303.37
-3.1890993 -4.8420377 -2.1102643 303.37
-25.062031 -38.051903 1.0578551 303.37
-3.4413388 -5.2250152 -2.1140525 303.37
-25.065746 -38.057545 2.1251359 303.37
-3.7238269 -5.6539192 -2.1125276 303.37
-25.080147 -38.079411 3.1884289 303.37
-4.0702081 -6.1798329 -2.1218565 303.37
-25.107166 -38.120434 4.2585378 303.37
-4.479322 -6.8009944 -2.1318707 303.37
-25.103434 -38.114765 5.3371243 303.37
-4.9904327 -7.5770178 -2.1497345 303.37
-25.136379 -38.164787 6.4225602 303.37
-5.6406412 -8.5642357 -2.1797462 303.37
-25.139881 -38.170105 7.5090981 303.37
-6.4885607 -9.8516397 -2.2225657 303.37
-7.7081752 -11.628136 -2.2920599 303.54001
-9.3014126 -14.031609 -2.3659427 303.54001
-11.353148 -17.126743 -2.4029257 303.54001
-13.892983 -20.958204 -2.3458929 303.54001
-23.416039 -35.324169 -2.9635341 303.54001
-2.6125925 -3.9412155 -2.105269 303.54001
-2.7877581 -4.205461 -2.1074927 303.54001
-25.005796 -37.722393 -1.0507526 303.54001
-2.9820094 -4.498498 -2.1075039 303.54001
-25.025797 -37.752563 0 303.54001
-3.2044902 -4.8341208 -2.1109483 303.54001
-25.05551 -37.797386 1.0528417 303.54001
-3.4547329 -5.2116232 -2.1127722 303.54001
-25.058235 -37.801498 2.1149807 303.54001
-3.7416408 -5.6444368 -2.1131234 303.54001
-25.077274 -37.830219 3.17378 303.54001
-4.0927749 -6.174139 -2.1240613 303.54001
-25.104633 -37.871494 4.2390304 303.54001
-4.5005503 -6.7892866 -2.1323771 303.54001
-25.092386 -37.853016 5.3108745 303.54001
-5.0171928 -7.568666 -2.1515791 303.54001
-25.133512 -37.915058 6.3930554 303.54001
-5.6714315 -8.5556145 -2.1818254 303.54001
-25.124353 -37.901241 7.4708376 303.54001
-6.5221062 -9.8388968 -2.2240469 303.54001
-7.7567191 -11.62192 -2.2956264 303.72
-9.3542442 -14.015496 -2.3681695 303.72
-11.361683 -17.023249 -2.3934014 303.72
-13.958757 -20.914454 -2.3458929 303.72
-23.427216 -35.101078 -2.9509778 303.72
-2.6269898 -3.9360278 -2.1068959 303.72
-24.977238 -37.423481 -2.0982108 303.72
-2.8019807 -4.1982174 -2.1082635 303.72
-25.010965 -37.474014 -1.0460176 303.72
-2.9971611 -4.4906569 -2.1082313 303.72
-25.028807 -37.500748 0 303.72
-3.2217479 -4.8271561 -2.1123164 303.72
-25.050924 -37.533886 1.0476888 303.72
-3.4731922 -5.203896 -2.1140525 303.72
-25.049326 -37.53149 2.1042666 303.72
-3.7572351 -5.6294785 -2.111932 303.72
-25.083025 -37.581985 3.1595497 303.72
-4.1132188 -6.1628499 -2.1246128 303.72
-25.108519 -37.620178 4.2197089 303.72
-4.517561 -6.7686772 -2.1303513 303.72
-25.093187 -37.59721 5.2860184 303.72
-5.0452676 -7.5593414 -2.1534235 303.72
-25.131559 -37.654705 6.3624372 303.72
-5.7026258 -8.5442638 -2.1834886 303.72
-25.117308 -37.63335 7.4335499 303.72
-6.5562572 -9.8232622 -2.225158 303.72
-7.7935443 -11.606767 -2.2969234 303.88
-9.387826 -13.981099 -2.3667777 303.88
-11.352701 -16.907347 -2.3815539 303.88
-14.000456 -20.850594 -2.3431063 303.88
-23.595213 -35.139874 -2.9597671 303.88
-2.6338968 -3.9226091 -2.103642 303.88
-24.97473 -37.194359 -2.0892668 303.88
-2.810607 -4.18578 -2.1059511 303.88
-25.004053 -37.238029 -1.0413755 303.88
-3.0107284 -4.4838166 -2.1089587 303.88
-25.007446 -37.243084 0 303.88
-3.2320724 -4.8134594 -2.1102643 303.88
-25.04641 -37.301109 1.0431396 303.88
-3.4877107 -5.1941767 -2.1140525 303.88
-25.046007 -37.30051 2.0952294 303.88
-3.7750695 -5.6221342 -2.1131234 303.88
-25.067759 -37.332905 3.1444824 303.88
-4.1293406 -6.1497436 -2.1240613 303.88
-25.091366 -37.368061 4.1992726 303.88
-4.5353665 -6.7544293 -2.1298447 303.88
-25.086237 -37.36042 5.2625556 303.88
-5.0685272 -7.5484543 -2.1543458 303.88
-25.121792 -37.413376 6.3334894 303.88
-5.7286444 -8.5315542 -2.1843202 303.88
-25.118887 -37.40905 7.4030714 303.88
-6.5858545 -9.8081789 -2.2258985 303.88
-7.8353076 -11.585763 -2.2978961 304.07001
-9.4496708 -13.972858 -2.3706746 304.07001
-11.360854 -16.798851 -2.3715649 304.07001
-14.076215 -20.81395 -2.3442209 304.07001
-2.6489372 -3.9168801 -2.105269 304.07001
-24.990492 -36.952465 -2.0803227 304.07001
-2.8265398 -4.1794939 -2.1074927 304.07001
-25.003069 -36.971062 -1.0362227 304.07001
-3.0234933 -4.4707217 -2.1075039 304.07001
-25.010927 -36.982681 0 304.07001
-3.2501223 -4.8058286 -2.1116323 304.07001
-25.048994 -37.038971 1.038126 304.07001
-3.504916 -5.1825824 -2.1140525 304.07001
-25.055405 -37.048447 2.0857263 304.07001
-3.7958314 -5.6127481 -2.114315 304.07001
-25.065125 -37.06282 3.1287174 304.07001
-4.1507883 -6.1376085 -2.1246128 304.07001
-25.093548 -37.104847 4.1790223 304.07001
-4.5544882 -6.7345443 -2.1283252 304.07001
-25.090918 -37.10096 5.2376995 304.07001
-5.0968013 -7.5364413 -2.1557291 304.07001
-25.123674 -37.149399 6.3028712 304.07001
-5.7580009 -8.5141306 -2.184736 304.07001
-25.121187 -37.145718 7.3674049 304.07001
-6.6216464 -9.7911701 -2.2270093 304.07001
-7.8687406 -11.56547 -2.2982204 304.23001
-9.4853106 -13.941504 -2.3698397 304.23001
-11.366376 -16.706291 -2.3629699 304.23001
-14.127563 -20.764681 -2.3431063 304.23001
-14.449512 -21.237883 -1.7962292 304.23001
-2.6588371 -3.9079571 -2.1044555 304.23001
-24.976707 -36.710747 -2.0706334 304.23001
-2.8350859 -4.167007 -2.1051803 304.23001
-24.995991 -36.73909 -1.0316734 304.23001
-3.0349183 -4.4607205 -2.1067765 304.23001
-25.003853 -36.750645 0 304.23001
-3.2656443 -4.7998419 -2.1130004 304.23001
-25.048853 -36.816788 1.0338552 304.23001
-3.5183091 -5.1712084 -2.1134124 304.23001
-25.043013 -36.808205 2.0761302 304.23001
-3.8082685 -5.5973907 -2.1125276 304.23001
-25.06303 -36.837624 3.1156032 304.23001
-4.168993 -6.127583 -2.125164 304.23001
-25.086168 -36.871635 4.1606297 304.23001
-4.5721884 -6.7201996 -2.1278186 304.23001
-25.083801 -36.868153 5.2147017 304.23001
-5.1189218 -7.523788 -2.1561902 304.23001
-25.113682 -36.912071 6.2744799 304.23001
-5.7839551 -8.5012531 -2.1855676 304.23001
-25.104923 -36.8992 7.3323865 304.23001
-6.6578074 -9.7856407 -2.2299719 304.23001
-7.9117274 -11.550461 -2.3001659 304.41
-9.5368977 -13.923074 -2.371788 304.41
-11.361553 -16.58692 -2.3511224 304.41
-14.20398 -20.736626 -2.344964 304.41
-14.515034 -21.190737 -1.7960896 304.41
-2.6721337 -3.9010923 -2.105269 304.41
-24.981274 -36.470573 -2.0615029 304.41
-2.8502486 -4.1611252 -2.1067219 304.41
-24.986996 -36.478928 -1.026567 304.41
-3.0520754 -4.4557753 -2.1089587 304.41
-25.011812 -36.51516 0 304.41
-3.2785833 -4.7864575 -2.1116323 304.41
-25.049141 -36.569656 1.0291202 304.41
-3.5345376 -5.1601295 -2.1134124 304.41
-25.046755 -36.56617 2.0669067 304.41
-3.8258345 -5.5853992 -2.1125276 304.41
-25.062506 -36.589165 3.1012332 304.41
-4.1871362 -6.1128697 -2.1246128 304.41
-25.080345 -36.615208 4.1405649 304.41
-4.5987449 -6.7137837 -2.1303513 304.41
-25.083876 -36.620365 5.1907749 304.41
-5.1458325 -7.512486 -2.1575735 304.41
-25.118717 -36.67123 6.2469239 304.41
-5.8139505 -8.4878826 -2.1868153 304.41
-25.113655 -36.663841 7.3012595 304.41
-6.6885171 -9.7646761 -2.2299719 304.41
-7.9506702 -11.538073 -2.3021114 304.57001
-9.5836067 -13.907804 -2.3737364 304.57001
-11.367251 -16.496241 -2.3427596 304.57001
-14.267482 -20.705078 -2.3458929 304.57001
-2.6830173 -3.893615 -2.105269 304.57001
-24.965128 -36.229584 -2.0518136 304.57001
-2.8608105 -4.1516299 -2.1059511 304.57001
-24.978718 -36.249306 -1.0220641 304.57001
-3.0645063 -4.4472346 -2.1089587 304.57001
-24.996798 -36.275543 0 304.57001
-3.2919366 -4.7772837 -2.1116323 304.57001
-25.032042 -36.326687 1.024246 304.57001
-3.5532339 -5.1564798 -2.1159732 304.57001
-25.037678 -36.334866 2.0577762 304.57001
-3.8414168 -5.5746932 -2.1125276 304.57001
-25.054773 -36.359676 3.0877006 304.57001
-4.2030997 -6.0995698 -2.1240613 304.57001
-25.077414 -36.392532 4.1232872 304.57001
-4.6185732 -6.7025084 -2.1308577 304.57001
-25.073328 -36.386604 5.1675444 304.57001
-5.1689997 -7.5012918 -2.1584959 304.57001
-25.11314 -36.444382 6.2202024 304.57001
-5.8465104 -8.4845009 -2.1901417 304.57001
-25.106201 -36.434311 7.269484 304.57001
-6.7202196 -9.7524338 -2.2314529 304.57001
-7.9902534 -11.517903 -2.3030841 304.75
-9.6295099 -13.880881 -2.3742931 304.75
-11.375993 -16.398426 -2.3339322 304.75
-14.324512 -20.648701 -2.3445923 304.75
-17.324358 -24.972958 -2.1253402 304.75
-2.6941948 -3.8836656 -2.1044555 304.75
-24.963808 -35.98518 -2.0424037 304.75
-2.8738391 -4.142622 -2.1059511 304.75
-24.999022 -36.035942 -1.0182575 304.75
-3.073153 -4.4299316 -2.1053214 304.75
-25.000057 -36.037434 0 304.75
-3.3047862 -4.7638297 -2.1102643 304.75
-25.037771 -36.091797 1.0198358 304.75
-3.567256 -5.1421781 -2.1146929 304.75
-25.033272 -36.085312 2.0480869 304.75
-3.856735 -5.5594602 -2.1113362 304.75
-25.054018 -36.115219 3.0736098 304.75
-4.2266245 -6.0926538 -2.1262665 304.75
-25.074709 -36.145042 4.1041512 304.75
-4.6374016 -6.6847863 -2.1298447 304.75
-25.07542 -36.146069 5.1445465 304.75
-5.195868 -7.4898129 -2.1598792 304.75
-25.110106 -36.196068 6.1912546 304.75
-5.8720217 -8.4644842 -2.1897259 304.75
-25.108047 -36.1931 7.2370596 304.75
-6.7553058 -9.7377329 -2.2329342 304.75
-8.0311708 -11.503854 -2.3050294 304.92001
-9.6819906 -13.868488 -2.3770766 304.92001
-11.405267 -16.33691 -2.329983 304.92001
-14.345819 -20.54896 -2.3380899 304.92001
-17.404087 -24.929625 -2.1260378 304.92001
-2.703614 -3.8726585 -2.1028285 304.92001
-24.959538 -35.752056 -2.0333667 304.92001
-2.8850613 -4.1325636 -2.1051803 304.92001
-24.984509 -35.787827 -1.0133369 304.92001
-3.0905492 -4.4269042 -2.1082313 304.92001
-25.001545 -35.812229 0 304.92001
-3.3221338 -4.758626 -2.1123164 304.92001
-25.03487 -35.859962 1.0153794 304.92001
-3.5824974 -5.1315713 -2.1146929 304.92001
-25.035015 -35.860172 2.0395155 304.92001
-3.874306 -5.5495582 -2.111932 304.92001
-25.050282 -35.882038 3.060077 304.92001
-4.2413816 -6.0753574 -2.1246128 304.92001
-25.07127 -35.912102 4.0861306 304.92001
-4.6583228 -6.6725841 -2.1303513 304.92001
-25.068846 -35.908627 5.1213164 304.92001
-5.2180681 -7.4743638 -2.1598792 304.92001
-25.104017 -35.959011 6.1634197 304.92001
-5.9004698 -8.4518366 -2.1909733 304.92001
-25.097834 -35.95015 7.2033386 304.92001
-6.7909188 -9.7273159 -2.2351561 304.92001
-8.0732098 -11.491279 -2.3072991 305.09
-9.7230959 -13.839701 -2.3770766 305.09
-11.434277 -16.275368 -2.3260338 305.09
-14.364369 -20.446014 -2.3312161 305.09
-17.538765 -24.964399 -2.1334319 305.09
-2.7161429 -3.8661146 -2.103642 305.09
-24.963291 -35.532352 -2.0250747 305.09
-2.898371 -4.1254954 -2.1059511 305.09
-24.98024 -35.556477 -1.0088804 305.09
-3.1036704 -4.4177151 -2.1082313 305.09
-24.984673 -35.562786 0 305.09
-3.3340774 -4.7456727 -2.1109483 305.09
-25.028515 -35.625191 1.01083 305.09
-3.5966179 -5.1193686 -2.1140525 305.09
-25.02416 -35.618992 2.0300126 305.09
-3.8907549 -5.5380387 -2.111932 305.09
-25.030474 -35.627979 3.0447307 305.09
-4.2593889 -6.062746 -2.1246128 305.09
-25.064383 -35.676243 4.0677381 305.09
-4.6803246 -6.6618996 -2.1313641 305.09
-25.070219 -35.684551 5.0999451 305.09
-5.2446971 -7.4652181 -2.1617236 305.09
-25.094469 -35.719067 6.1350288 305.09
-5.9277701 -8.4374933 -2.1918051 305.09
-25.090937 -35.714039 7.1709146 305.09
-6.82201 -9.7103405 -2.2358966 305.09
-8.11269 -11.470693 -2.3082719 305.26999
-9.7756758 -13.822022 -2.3793032 305.26999
-11.476174 -16.226391 -2.3241754 305.26999
-14.362989 -20.308115 -2.3206263 305.26999
-14.831456 -20.97049 -1.7960896 305.26999
-2.7282753 -3.8575625 -2.103642 305.26999
-24.961742 -35.293903 -2.0159445 305.26999
-2.9123831 -4.1178761 -2.1067219 305.26999
-24.970592 -35.306416 -1.0040061 305.26999
-3.1175337 -4.4079428 -2.1082313 305.26999
-25.006193 -35.356754 0 305.26999
-3.3478847 -4.7336407 -2.1102643 305.26999
-25.032938 -35.394569 1.0065129 305.26999
-3.6115892 -5.1064973 -2.1134124 305.26999
-25.02173 -35.378719 2.0207891 305.26999
-3.9103386 -5.5289054 -2.1131234 305.26999
-25.053572 -35.42374 3.033988 305.26999
-4.2795243 -6.0509048 -2.125164 305.26999
-25.07975 -35.460758 4.0521321 305.26999
-4.7045822 -6.6519017 -2.1328838 305.26999
-25.075525 -35.454784 5.078341 305.26999
-5.2681236 -7.4487047 -2.1617236 305.26999
-25.095629 -35.483208 6.1080289 305.26999
-5.9598961 -8.426815 -2.1938841 305.26999
-25.106148 -35.498081 7.1433539 305.26999
-6.8558869 -9.693675 -2.2370076 305.26999
-8.1515541 -11.457642 -2.3102174 305.42999
-9.821125 -13.804352 -2.3809733 305.42999
-11.523745 -16.197517 -2.32464 305.42999
-14.374622 -20.204645 -2.3133807 305.42999
-23.658079 -33.253265 -2.8537374 305.42999
-2.7432737 -3.8558838 -2.1068959 305.42999
-24.937439 -35.051502 -2.0060687 305.42999
-2.9195917 -4.1037121 -2.1036384 305.42999
-24.974043 -35.102951 -1.0001996 305.42999
-3.1309109 -4.4007378 -2.1089587 305.42999
-23.821356 -33.482761 0 305.42999
-3.3610904 -4.7242732 -2.1102643 305.42999
-25.013453 -35.158344 1.0017779 305.42999
-3.6269333 -5.0979362 -2.1140525 305.42999
-25.017353 -35.163826 2.0124972 305.42999
-3.9257631 -5.5179644 -2.1131234 305.42999
-25.03558 -35.189449 3.0198972 305.42999
-4.2964053 -6.0389304 -2.125164 305.42999
-25.064392 -35.229946 4.0337396 305.42999
-4.7231393 -6.6387382 -2.1328838 305.42999
-25.053522 -35.214668 5.0539494 305.42999
-5.2945447 -7.4418931 -2.1640291 305.42999
-25.08325 -35.256451 6.0810294 305.42999
-5.9834046 -8.4101391 -2.1938841 305.42999
-25.081619 -35.254158 7.108336 305.42999
-6.8817906 -9.6728907 -2.2366374 305.42999
-25.066126 -35.232384 8.1466923 305.42999
-8.1886587 -11.43358 -2.3105416 305.60999
-9.8667507 -13.77665 -2.38153 305.60999
-11.578044 -16.166079 -2.3253369 305.60999
-14.419475 -20.133484 -2.3104081 305.60999
-24.931093 -34.810547 -2.9940875 305.60999
-2.7511184 -3.8413048 -2.103642 305.60999
-24.960188 -34.85117 -1.9990811 305.60999
-2.9346185 -4.0975208 -2.1051803 305.60999
-24.967777 -34.861767 -0.99555737 305.60999
-3.1447208 -4.3908801 -2.1089587 305.60999
-24.982656 -34.882542 0 305.60999
-3.3759155 -4.7136908 -2.1102643 305.60999
-25.022495 -34.938168 0.9977392 305.60999
-3.6407247 -5.0834355 -2.1127722 305.60999
-25.014862 -34.927509 2.0034599 305.60999
-3.9397438 -5.5009475 -2.1113362 305.60999
-25.032162 -34.951664 3.0062251 305.60999
-4.3108783 -6.0191512 -2.1229589 305.60999
-25.046242 -34.971325 4.0131173 305.60999
-4.7484784 -6.6301594 -2.1349096 305.60999
-25.05299 -34.980747 5.0316482 305.60999
-5.3201642 -7.4283872 -2.1649516 305.60999
-25.073954 -35.010017 6.0520816 305.60999
-6.0132136 -8.3960714 -2.1951315 305.60999
-25.083082 -35.022762 7.0775332 305.60999
-6.9213004 -9.6640062 -2.2395997 305.60999
-25.062248 -34.993671 8.1096621 305.60999
-8.2248545 -11.412436 -2.3111901 305.78
-9.913373 -13.755348 -2.3829219 305.78
-11.629443 -16.13649 -2.3260338 305.78
-14.484969 -20.09869 -2.3113372 305.78
-16.198027 -22.475651 -1.9372768 305.78
-2.7614353 -3.8316429 -2.1028285 305.78
-24.949013 -34.618122 -1.9899508 305.78
-2.9456842 -4.0872984 -2.1044092 305.78
-24.963552 -34.638298 -0.99128664 305.78
-3.1588242 -4.3830419 -2.1096864 305.78
-24.977295 -34.657368 0 305.78
-3.3909853 -4.7051778 -2.1109483 305.78
-25.010313 -34.703182 0.9931435 305.78
-3.6580071 -5.0756855 -2.1140525 305.78
-25.023769 -34.721851 1.9959135 305.78
-3.9605131 -5.495429 -2.1137192 305.78
-25.040102 -34.744514 2.9947848 305.78
-4.3320904 -6.011013 -2.1246128 305.78
-25.069557 -34.785385 4.0002985 305.78
-4.7647357 -6.6113324 -2.1333902 305.78
-25.063755 -34.777332 5.0130639 305.78
-5.3455949 -7.4173059 -2.1663349 305.78
-25.090874 -34.81496 6.0312057 305.78
-6.0415301 -8.3829546 -2.1963792 305.78
-25.099192 -34.826504 7.0528908 305.78
-6.9579873 -9.6545887 -2.2421918 305.78
-25.056799 -34.767681 8.0744829 305.78
-8.2624836 -11.397413 -2.3128114 305.94
-9.9633713 -13.743647 -2.3857052 305.94
-11.66863 -16.095909 -2.3248725 305.94
-14.529351 -20.042038 -2.3094792 305.94
-16.345041 -22.546633 -1.9473218 305.94
-2.7753417 -3.8283544 -2.105269 305.94
-25.066694 -34.577431 -1.9916278 305.94
-2.9614193 -4.0850329 -2.1074927 305.94
-25.057837 -34.565212 -0.99119377 305.94
-3.1699581 -4.372695 -2.1089587 305.94
-25.075153 -34.5891 0 305.94
-3.4019053 -4.692647 -2.1095803 305.94
-25.108299 -34.634823 0.99318987 305.94
-3.6688304 -5.0608482 -2.1121318 305.94
-25.096008 -34.61787 1.993957 305.94
-3.978085 -5.4874396 -2.1149106 305.94
-25.105412 -34.63084 2.9910181 305.94
-4.3511162 -6.0020051 -2.1257153 305.94
-25.153742 -34.697506 3.9982548 305.94
-4.7820439 -6.5964346 -2.1328838 305.94
-25.144451 -34.684692 5.0098119 305.94
-5.3662868 -7.402349 -2.1663349 305.94
-25.143824 -34.683826 6.0206285 305.94
-6.0672126 -8.3692188 -2.1972108 305.94
-25.159281 -34.705147 7.0425153 305.94
-6.9837675 -9.6335297 -2.2418215 305.94
-25.161865 -34.708714 8.077075 305.94
-8.3020792 -11.380819 -2.3144324 306.10999
-10.008774 -13.720425 -2.3868186 306.10999
-11.715165 -16.059612 -2.32464 306.10999
-14.540636 -19.93288 -2.3018622 306.10999
-25.209229 -34.557808 -2.9911575 306.10999
-2.788842 -3.823055 -2.1068959 306.10999
-25.22687 -34.581993 -1.9961931 306.10999
-2.9680886 -4.0687737 -2.1036384 306.10999
-25.216845 -34.568249 -0.99342203 306.10999
-3.184016 -4.3647757 -2.1096864 306.10999
-25.228354 -34.58403 0 306.10999
-3.4169211 -4.684051 -2.1102643 306.10999
-25.256908 -34.623173 0.99500036 306.10999
-3.6849468 -5.0514712 -2.1127722 306.10999
-25.257481 -34.623959 1.9986154 306.10999
-3.9875982 -5.4663577 -2.1113362 306.10999
-25.266842 -34.636791 2.9979937 306.10999
-4.3632402 -5.9813027 -2.1229589 306.10999
-25.316433 -34.704769 4.0077295 306.10999
-4.7981744 -6.5775275 -2.1313641 306.10999
-25.305786 -34.690174 5.0214272 306.10999
-5.3893733 -7.3879666 -2.166796 306.10999
-25.304981 -34.689072 6.0345454 306.10999
-6.0954766 -8.3559217 -2.1984582 306.10999
-25.320295 -34.710064 7.0587273 306.10999
-7.0134783 -9.6143541 -2.2421918 306.10999
-25.326126 -34.71806 8.0967007 306.10999
-8.3377924 -11.354682 -2.3144324 306.29001
-10.053 -13.69051 -2.3870971 306.29001
-11.75733 -16.01152 -2.323014 306.29001
-14.61615 -19.904758 -2.3039057 306.29001
-16.326591 -22.234093 -1.928906 306.29001
-2.7975945 -3.8098569 -2.1044555 306.29001
-25.390963 -34.578255 -2.0005717 306.29001
-2.9819486 -4.0609164 -2.1044092 306.29001
-25.379757 -34.562992 -0.99555737 306.29001
-3.1977127 -4.3547511 -2.1096864 306.29001
-25.391331 -34.578754 0 306.29001
-3.4305074 -4.6717787 -2.1095803 306.29001
-25.408159 -34.601673 0.9966715 306.29001
-3.7007983 -5.0398698 -2.1127722 306.29001
-25.416977 -34.613682 2.0026214 306.29001
-4.0058813 -5.4553423 -2.111932 306.29001
-25.420404 -34.618351 3.0032952 306.29001
-4.3842854 -5.970665 -2.1240613 306.29001
-25.47366 -34.690872 4.015347 306.29001
-4.8256855 -6.5717783 -2.1344032 306.29001
-25.471079 -34.687359 5.0325775 306.29001
-5.4171643 -7.3772736 -2.1686404 306.29001
-25.471275 -34.687626 6.0481844 306.29001
-6.1240134 -8.3398838 -2.1992898 306.29001
-25.481779 -34.701931 7.073318 306.29001
-7.0494642 -9.600194 -2.2440434 306.29001
-25.492073 -34.71595 8.1148462 306.29001
-8.3839808 -11.342715 -2.3173506 306.47
-10.098315 -13.662045 -2.3876538 306.47
-11.817019 -15.987285 -2.3248725 306.47
-14.730692 -19.929203 -2.3120801 306.47
-16.626427 -22.493948 -1.9559715 306.47
-2.8128078 -3.8054569 -2.1068959 306.47
-25.558844 -34.578644 -2.0052302 306.47
-2.9946916 -4.0515285 -2.1044092 306.47
-25.550014 -34.5667 -0.9979713 306.47
-3.2047336 -4.3356948 -2.1053214 306.47
-25.554522 -34.5728 0 306.47
-3.4451673 -4.6609783 -2.1095803 306.47
-25.588047 -34.618153 0.99945682 306.47
-3.7166131 -5.0282183 -2.1127722 306.47
-25.581406 -34.609169 2.0070004 306.47
-4.0230002 -5.4427304 -2.111932 306.47
-25.596632 -34.629772 3.0112474 306.47
-4.4064493 -5.9615002 -2.1257153 306.47
-25.635784 -34.682735 4.0237069 306.47
-4.8543577 -6.5674767 -2.1379488 306.47
-25.63306 -34.679054 5.0430312 306.47
-5.4414706 -7.361784 -2.1691015 306.47
-25.634275 -34.680698 6.0609884 306.47
-6.1571603 -8.3300428 -2.2017848 306.47
-25.652845 -34.705822 7.0905027 306.47
-7.0842624 -9.584322 -2.2455246 306.47
-25.655918 -34.709976 8.1322508 306.47
-8.4168005 -11.320843 -2.3176749 306.63
-10.155334 -13.659222 -2.3921072 306.63
-11.847396 -15.935094 -2.3220847 306.63
-14.753019 -19.843243 -2.3068783 306.63
-16.315395 -21.944685 -1.9121644 306.63
-2.8201532 -3.7931886 -2.1044555 306.63
-25.701794 -34.569664 -2.0088637 306.63
-3.0059941 -4.0431499 -2.1044092 306.63
-25.696548 -34.562611 -0.99992102 306.63
-3.2201631 -4.331214 -2.1075039 306.63
-25.704666 -34.573528 0 306.63
-3.4615335 -4.6558642 -2.1116323 306.63
-25.738302 -34.618771 1.0015458 306.63
-3.7272487 -5.0132585 -2.1108515 306.63
-25.743513 -34.625778 2.0121245 306.63
-4.0393224 -5.4330068 -2.1125276 306.63
-25.750376 -34.63501 3.0179441 306.63
-4.4184914 -5.9430003 -2.1235101 306.63
-25.788378 -34.686123 4.0324388 306.63
-4.8680611 -6.5476847 -2.1359227 306.63
-25.790249 -34.688641 5.0548782 306.63
-5.4666519 -7.3528066 -2.1709459 306.63
-25.787743 -34.685268 6.0743489 306.63
-6.1827326 -8.3159561 -2.2026165 306.63
-25.809715 -34.714821 7.107039 306.63
-7.1109991 -9.5645018 -2.2455246 306.63
-25.826624 -34.737564 8.1555796 306.63
-8.4566603 -11.296029 -2.3183234 306.82001
-10.197014 -13.620714 -2.3912723 306.82001
-11.898982 -15.894129 -2.3218524 306.82001
-14.818741 -19.79421 -2.3068783 306.82001
-24.793753 -33.118385 -2.8929405 306.82001
-2.8327165 -3.7838159 -2.1044555 306.82001
-25.876154 -34.564209 -2.0135221 306.82001
-3.0204911 -4.034637 -2.1051803 306.82001
-25.866142 -34.550835 -1.0020564 306.82001
-3.2322752 -4.3175287 -2.1060488 306.82001
-25.880304 -34.569752 0 306.82001
-3.4735751 -4.6398463 -2.1095803 306.82001
-25.906883 -34.605255 1.0036348 306.82001
-3.7472594 -5.0054212 -2.1127722 306.82001
-25.907284 -34.605789 2.0159445 306.82001
-4.0573168 -5.4195824 -2.1125276 306.82001
-25.923677 -34.627686 3.0247803 306.82001
-4.4393272 -5.9298544 -2.1240613 306.82001
-25.966511 -34.684902 4.0422854 306.82001
-4.8978639 -6.5423474 -2.1394682 306.82001
-25.962282 -34.679256 5.0660291 306.82001
-5.4956698 -7.3408699 -2.1727905 306.82001
-25.958408 -34.67408 6.0874314 306.82001
-6.2114477 -8.2969742 -2.2030323 306.82001
-25.970819 -34.690659 7.1196847 306.82001
-7.1473885 -9.5471621 -2.2470059 306.82001
-25.965233 -34.683197 8.1629858 306.82001
-8.4929209 -11.278676 -2.3196204 306.98001
-10.236201 -13.593768 -2.3915505 306.98001
-11.9481 -15.867186 -2.3227816 306.98001
-14.403195 -19.127575 -2.2338653 306.98001
-2.8421726 -3.774431 -2.103642 306.98001
-26.03026 -34.56842 -2.0179942 306.98001
-3.0250854 -4.0173407 -2.1005552 306.98001
-26.025068 -34.561527 -1.0044703 306.98001
-3.2454402 -4.3099737 -2.1067765 306.98001
-26.034487 -34.574036 0 306.98001
-3.4853878 -4.6286268 -2.1088963 306.98001
-26.063557 -34.612637 1.0059558 306.98001
-3.7623622 -4.9964509 -2.1134124 306.98001
-26.055496 -34.601936 2.0199506 306.98001
-4.0724354 -5.4082308 -2.1125276 306.98001
-26.070681 -34.622101 3.0306396 306.98001
-4.4570255 -5.9189701 -2.1246128 306.98001
-26.114777 -34.68066 4.0502744 306.98001
-4.9137869 -6.5255532 -2.1384552 306.98001
-26.118771 -34.685963 5.0776439 306.98001
-5.5149775 -7.3239398 -2.1723294 306.98001
-26.115894 -34.682144 6.1016269 306.98001
-6.2381234 -8.2842846 -2.2042797 306.98001
-26.126949 -34.696827 7.1358967 306.98001
-7.1834793 -9.5397263 -2.2499683 306.98001
-26.102182 -34.663933 8.1755762 306.98001
-8.5311155 -11.259719 -2.3209174 307.14999
-10.28845 -13.579123 -2.3943341 307.14999
-11.989129 -15.823749 -2.3216202 307.14999
-14.483936 -19.116499 -2.237581 307.14999
-16.713892 -22.059689 -1.9353236 307.14999
-2.853359 -3.7659814 -2.103642 307.14999
-26.18821 -34.564285 -2.0222797 307.14999
-3.0425642 -4.0157022 -2.1044092 307.14999
-26.187874 -34.563839 -1.0067915 307.14999
-3.2615891 -4.3047805 -2.1089587 307.14999
-26.18889 -34.565186 0 307.14999
-3.4968359 -4.6152692 -2.1075282 307.14999
-26.228928 -34.618027 1.0083698 307.14999
-3.7748818 -4.9822454 -2.1121318 307.14999
-26.225611 -34.613647 2.0251679 307.14999
-4.0907698 -5.3991675 -2.1137192 307.14999
-26.237148 -34.628876 3.038034 307.14999
-4.4710846 -5.901123 -2.1229589 307.14999
-26.281298 -34.687145 4.0601206 307.14999
-4.9331269 -6.5109448 -2.1384552 307.14999
-26.271955 -34.674816 5.0874004 307.14999
-5.5413847 -7.3137488 -2.1741738 307.14999
-26.272507 -34.675541 6.1141529 307.14999
-6.2626758 -8.2657394 -2.2042797 307.14999
-26.291758 -34.700951 7.1527572 307.14999
-7.2117529 -9.5183697 -2.2499683 307.14999
-8.5577402 -11.229573 -2.3196204 307.31
-10.338335 -13.566092 -2.3971174 307.31
-12.030862 -15.787047 -2.3211555 307.31
-14.523986 -19.058556 -2.2355373 307.31
-15.933756 -20.908474 -1.8382226 307.31
-2.8649719 -3.7594519 -2.1044555 307.31
-26.343966 -34.568882 -2.026845 307.31
-3.057122 -4.0115938 -2.1067219 307.31
-26.338829 -34.562138 -1.0088804 307.31
-3.2747266 -4.2971373 -2.1096864 307.31
-26.351988 -34.579407 0 307.31
-3.5142672 -4.611465 -2.1102643 307.31
-26.383669 -34.620979 1.0105979 307.31
-3.7887802 -4.9716845 -2.1121318 307.31
-26.385138 -34.622906 2.0300126 307.31
-4.1069884 -5.3892412 -2.114315 307.31
-26.386957 -34.625294 3.0441725 307.31
-4.4828854 -5.8824978 -2.1207538 307.31
-26.43479 -34.688061 4.0688524 307.31
-4.9536347 -6.5002217 -2.1394682 307.31
-26.434906 -34.688213 5.1001773 307.31
-5.5629663 -7.2997937 -2.1746349 307.31
-26.43166 -34.683952 6.1286268 307.31
-6.2904768 -8.2544422 -2.2059431 307.31
