# .PCD v0.7 - Point Cloud Data file format
VERSION 0.7
FIELDS x y z intensity
SIZE 4 4 4 4
TYPE F F F F
COUNT 1 1 1 1
WIDTH 1219
HEIGHT 1
VIEWPOINT 0 0 0 1 0 0 0
POINTS 1219
DATA ascii
12.856311 2.7678912 -1.2269167 167.85001
12.884587 2.7739792 -0.92162251 167.85001
4.3564539 0.93791997 -1.9840614 167.85001
12.751642 2.7453566 -0.60828638 167.85001
4.5753021 0.98503673 -1.9548652 167.85001
12.623279 2.717721 -0.29979062 167.85001
4.8518643 1.0445791 -1.9380015 167.85001
5.1535897 1.1095388 -1.918733 167.85001
12.572457 2.7067792 0.29858366 167.85001
5.5310078 1.1907948 -1.9117386 167.85001
5.9128928 1.2730125 -1.8873343 167.85001
6.4521818 1.3891184 -1.892526 167.85001
6.8773532 1.4806554 -1.8416445 167.85001
6.9651384 1.499555 -1.6881549 167.85001
8.9364042 1.9239576 -1.7222848 167.85001
10.081749 2.1374252 -1.6931866 168.03
10.435225 2.2123654 -1.4991727 168.03
12.85715 2.7258363 -1.2261735 168.03
12.865914 2.7276943 -0.91966933 168.03
4.3540168 0.92309237 -1.9816209 168.03
12.875512 2.7297292 -0.61378324 168.03
4.5801792 0.9710409 -1.955636 168.03
12.588723 2.6689272 -0.29876935 168.03
4.8569446 1.0297178 -1.9387289 168.03
12.66255 2.6845791 0 168.03
5.1552114 1.0929531 -1.918049 168.03
50.417484 10.688979 1.1965629 168.03
5.5124788 1.1686971 -1.9040558 168.03
5.9262018 1.2564102 -1.8903131 168.03
6.424542 1.3620631 -1.8831544 168.03
6.9046836 1.4638577 -1.8477225 168.03
6.9641037 1.4764552 -1.6867715 168.03
8.9693222 1.9015803 -1.7274691 168.03
9.6012239 2.0058002 -1.611478 168.2
11.460789 2.3942835 -1.3691844 168.2
12.86713 2.6880836 -1.2263594 168.2
12.78802 2.6715567 -0.91353077 168.2
4.3567367 0.91016972 -1.9816209 168.2
12.901155 2.6951919 -0.61462176 168.2
4.566782 0.95405048 -1.9486984 168.2
12.639645 2.6405594 -0.29979062 168.2
4.8672729 1.0168263 -1.9416388 168.2
50.683796 10.588397 0 168.2
5.151073 1.0761153 -1.9153128 168.2
50.509651 10.552015 1.198002 168.2
5.5455976 1.1585357 -1.9142996 168.2
5.9224281 1.2372596 -1.8879302 168.2
6.4360824 1.3445677 -1.8853595 168.2
6.8711185 1.4354514 -1.8375925 168.2
7.090373 1.4812561 -1.7162831 168.2
8.9691534 1.8737538 -1.7263582 168.2
9.4776201 1.9506482 -1.5897537 168.37
10.467567 2.1543953 -1.5019561 168.37
11.46006 2.3586664 -1.3682553 168.37
12.812634 2.6370482 -1.2204143 168.37
12.881874 2.6512988 -0.91966933 168.37
4.3504701 0.89539737 -1.9775536 168.37
12.956059 2.6665673 -0.61685771 168.37
4.5804381 0.94272858 -1.9533235 168.37
12.635674 2.6006269 -0.29951209 168.37
4.8739181 1.0031315 -1.9430938 168.37
12.641038 2.6017308 0 168.37
5.154243 1.060827 -1.9153128 168.37
12.602381 2.5937746 0.29872292 168.37
5.5471549 1.1416945 -1.9136593 168.37
5.9279428 1.2200669 -1.8885258 168.37
6.4626403 1.3301163 -1.8919748 168.37
6.8374457 1.4072573 -1.8274624 168.37
6.8793402 1.41588 -1.6641767 168.37
8.3255939 1.7135425 -1.8067526 168.37
8.9919987 1.8506994 -1.7296909 168.37
9.43888 1.9135004 -1.5822963 168.53999
10.427328 2.113884 -1.4952759 168.53999
12.169825 2.4671321 -1.452116 168.53999
12.798934 2.5946689 -1.2183707 168.53999
4.36027 0.88393742 -1.9808074 168.53999
12.952166 2.6257327 -0.61629874 168.53999
4.5795979 0.9284007 -1.9517819 168.53999
12.629617 2.5603437 -0.29918715 168.53999
4.8750472 0.98829573 -1.9423664 168.53999
50.998592 10.338709 0 168.53999
5.1665778 1.0473964 -1.918733 168.53999
51.063236 10.351813 1.2096537 168.53999
5.5412331 1.1233485 -1.9104582 168.53999
5.9315367 1.202473 -1.8885258 168.53999
6.4665585 1.3109354 -1.8919748 168.53999
6.7828078 1.3750473 -1.8117609 168.53999
6.7538133 1.3691694 -1.6328207 168.53999
8.3248901 1.6876664 -1.8055052 168.53999
8.9974508 1.8240116 -1.7296909 168.53999
10.425786 2.0813854 -1.4941624 168.71001
10.388805 2.0740027 -1.2388633 168.71001
12.835869 2.56253 -1.2211574 168.71001
4.3628736 0.87099636 -1.9808074 168.71001
20.94743 4.1819077 -0.99614 168.71001
4.5931907 0.91697645 -1.956407 168.71001
12.643041 2.524034 -0.29932642 168.71001
4.8743043 0.97309738 -1.9409114 168.71001
51.448761 10.271139 0 168.71001
5.1678195 1.0316943 -1.918049 168.71001
5.5594063 1.10987 -1.91558 168.71001
5.9294615 1.1837472 -1.8867387 168.71001
6.4760752 1.2928722 -1.8936286 168.71001
6.8077288 1.3590829 -1.8173324 168.71001
6.8704453 1.3716035 -1.6600267 168.71001
8.3298607 1.6629585 -1.8055052 168.71001
9.0047503 1.7976923 -1.7300612 168.71001
9.4248943 1.8525075 -1.5780811 168.88
10.422198 2.0485325 -1.4927707 168.88
10.375422 2.0393384 -1.2365403 168.88
12.874679 2.5305791 -1.2241299 168.88
4.363646 0.85769528 -1.9799939 168.88
20.979349 4.12359 -0.99707168 168.88
4.5995131 0.90405601 -1.9579486 168.88
12.611236 2.4787979 -0.29839799 168.88
4.8698578 0.95719355 -1.9380015 168.88
12.661733 2.4887233 0 168.88
5.1745462 1.0170815 -1.919417 168.88
5.5645342 1.0937355 -1.9162203 168.88
5.9329476 1.1661489 -1.8867387 168.88
6.4647913 1.2706853 -1.8892184 168.88
6.8478026 1.3459679 -1.8269559 168.88
6.8878517 1.3538398 -1.6632545 168.88
6.8490133 1.3462059 -1.4836578 168.88
9.01583 1.772104 -1.7311721 168.88
10.442195 2.0184112 -1.4947191 169.06
12.859103 2.4855845 -1.2219005 169.06
14.46821 2.7966149 -1.0304426 169.06
4.3573494 0.8422485 -1.9759266 169.06
12.751849 2.464853 -0.60567772 169.06
4.5860229 0.88644964 -1.9510109 169.06
12.640554 2.4433405 -0.29890862 169.06
4.8691826 0.94118261 -1.9365466 169.06
5.1814065 1.0015335 -1.9207851 169.06
5.5716634 1.0769677 -1.9175007 169.06
5.9384565 1.1478666 -1.8873343 169.06
6.4517632 1.2470856 -1.884257 169.06
6.8121047 1.3167374 -1.8163193 169.06
7.1538434 1.3827933 -1.7264278 169.06
6.8340015 1.3209698 -1.4794996 169.06
9.0232821 1.7441442 -1.7315423 169.06
10.14529 1.9316477 -1.6967533 169.22
10.511994 2.0014677 -1.5039046 169.22
12.153364 2.3139818 -1.4467731 169.22
12.815133 2.4399815 -1.2170701 169.22
4.3614793 0.83041894 -1.9767401 169.22
12.815598 2.4400699 -0.60837954 169.22
4.5848546 0.8729493 -1.9494693 169.22
12.627687 2.4042921 -0.29844439 169.22
4.8736219 0.92793012 -1.937274 169.22
12.552502 2.389977 0 169.22
5.1731057 0.98495132 -1.9166809 169.22
12.627687 2.4042921 0.29844439 169.22
5.5690651 1.0603414 -1.91558 169.22
5.949141 1.1327072 -1.8897173 169.22
6.4438891 1.2269065 -1.8809493 169.22
6.806252 1.2958999 -1.8137869 169.22
6.8823814 1.3103949 -1.6600267 169.22
6.8588033 1.3059056 -1.4840736 169.22
9.0377712 1.7207778 -1.7333939 169.22
10.139669 1.8975877 -1.6948079 169.39999
12.148859 2.2735972 -1.4453793 169.39999
12.781631 2.3920171 -1.2131686 169.39999
14.590449 2.7305284 -1.0379764 169.39999
4.3586788 0.81570458 -1.9742997 169.39999
12.748578 2.3858314 -0.60483921 169.39999
4.5966444 0.86023861 -1.9533235 169.39999
12.64697 2.366816 -0.29872292 169.39999
4.8746819 0.91227192 -1.9365466 169.39999
12.685763 2.3740761 0 169.39999
5.1687851 0.96731186 -1.9139447 169.39999
12.605698 2.3590922 0.29774806 169.39999
5.5705061 1.0424919 -1.9149399 169.39999
5.9414105 1.1119047 -1.8861428 169.39999
6.466609 1.2101929 -1.8864621 169.39999
6.9415126 1.2990688 -1.8487356 169.39999
6.7525611 1.2637074 -1.6277484 169.39999
9.0527925 1.6941841 -1.7352455 169.39999
10.137491 1.8660651 -1.6935109 169.57001
11.3908 2.0967689 -1.6277686 169.57001
12.145783 2.2357428 -1.4442178 169.57001
12.837632 2.3630953 -1.2178133 169.57001
12.66772 2.3318183 -0.90069556 169.57001
4.3682675 0.80409163 -1.9775536 169.57001
12.621993 2.3234012 -0.59850389 169.57001
4.6155114 0.84960324 -1.9602611 169.57001
12.618541 2.3227658 -0.29788733 169.57001
4.8645415 0.89544356 -1.9314542 169.57001
5.1697841 0.95163125 -1.9132607 169.57001
12.60281 2.3198702 0.29751596 169.57001
5.573575 1.0259594 -1.9149399 169.57001
5.9428058 1.0939257 -1.8855472 169.57001
6.464499 1.1899567 -1.8848082 169.57001
6.9186969 1.2735635 -1.8416445 169.57001
7.0950518 1.3060261 -1.7093663 169.57001
8.3885136 1.5441209 -1.81299 169.57001
9.0558462 1.6669606 -1.7348751 169.57001
10.12971 1.8317499 -1.6912413 169.75
11.381741 2.0581539 -1.6255418 169.75
12.1332 2.1940398 -1.4418948 169.75
12.723499 2.3007836 -1.2062947 169.75
12.671056 2.2913001 -0.90041655 169.75
4.3743682 0.79101461 -1.9791805 169.75
12.633162 2.2844477 -0.59869021 169.75
4.6145258 0.8344422 -1.9587194 169.75
34.203911 6.1850743 -0.80699289 169.75
4.8251657 0.87253207 -1.9147222 169.75
5.1764469 0.93605411 -1.9146287 169.75
5.5730414 1.0077701 -1.9136593 169.75
5.9556065 1.0769491 -1.8885258 169.75
6.4757729 1.1710105 -1.8870133 169.75
6.9721656 1.2607729 -1.8548136 169.75
6.9976215 1.2653761 -1.6849271 169.75
8.4029484 1.5195006 -1.8150691 169.75
9.0649061 1.6392021 -1.7356157 169.75
10.130585 1.8045319 -1.6905928 169.89999
11.38709 2.0283496 -1.6255418 169.89999
12.16237 2.1664481 -1.4446824 169.89999
12.841228 2.2873709 -1.2168844 169.89999
4.3710275 0.77859861 -1.9767401 169.89999
12.599762 2.2443595 -0.59682685 169.89999
4.613061 0.8217113 -1.9571778 169.89999
12.63171 2.2500503 -0.29788733 169.89999
4.8806233 0.86937141 -1.935819 169.89999
12.637083 2.2510073 0 169.89999
5.1807299 0.92282856 -1.9153128 169.89999
5.5831223 0.99450552 -1.9162203 169.89999
5.9621649 1.0620233 -1.8897173 169.89999
6.4958506 1.1570872 -1.8919748 169.89999
7.0440159 1.2547303 -1.8730477 169.89999
6.926188 1.233742 -1.6669434 169.89999
8.3953419 1.4954381 -1.8125741 169.89999
9.0672321 1.6151201 -1.7352455 169.89999
10.113184 1.766852 -1.6867019 170.09
11.407411 1.9929634 -1.6274903 170.09
12.155789 2.1237111 -1.4430562 170.09
12.658463 2.2115321 -1.1988633 170.09
12.649054 2.2098882 -0.89790535 170.09
4.3789849 0.76504284 -1.9791805 170.09
12.611071 2.2032523 -0.59701318 170.09
4.6121244 0.80577409 -1.955636 170.09
12.613497 2.2036762 -0.29728386 170.09
4.8889847 0.85414374 -1.9380015 170.09
12.612955 2.2035816 0 170.09
5.1782079 0.90467328 -1.9132607 170.09
5.5845232 0.97565967 -1.91558 170.09
5.9581308 1.0409319 -1.8873343 170.09
6.4996519 1.1355399 -1.8919748 170.09
7.0290785 1.2280349 -1.8679827 170.09
6.9129872 1.2077528 -1.6627934 170.09
8.3964005 1.4669166 -1.8117424 170.09
9.0628576 1.5833519 -1.7333939 170.09
10.112546 1.7358363 -1.6857291 170.25999
11.343001 1.947046 -1.6174698 170.25999
12.152247 2.0859547 -1.4418948 170.25999
12.841607 2.2042844 -1.2155839 170.25999
4.3830366 0.75235587 -1.9799939 170.25999
20.976091 3.6005826 -0.9925065 170.25999
4.6144948 0.79208612 -1.955636 170.25999
34.174843 5.8661714 -0.80504322 170.25999
4.8933339 0.83994931 -1.9387289 170.25999
5.1956878 0.89184886 -1.918733 170.25999
5.5873933 0.95908582 -1.91558 170.25999
5.9668384 1.0242182 -1.8891217 170.25999
6.4973083 1.1152743 -1.890321 170.25999
7.0307846 1.2068465 -1.8674762 170.25999
6.8800974 1.1809807 -1.6540321 170.25999
9.0617046 1.5554574 -1.732283 170.25999
10.109868 1.7045116 -1.6844321 170.42999
11.313575 1.9074553 -1.6124595 170.42999
12.160342 2.0502193 -1.4421271 170.42999
12.875582 2.1708078 -1.2181848 170.42999
14.680458 2.4751077 -1.0410457 170.42999
4.3888526 0.73995537 -1.9816209 170.42999
21.008352 3.5419831 -0.99353135 170.42999
4.6131849 0.77777755 -1.9540944 170.42999
34.176323 5.7620873 -0.80467182 170.42999
4.8902931 0.82449758 -1.9365466 170.42999
5.1890445 0.87486678 -1.9153128 170.42999
5.5902143 0.94250345 -1.91558 170.42999
5.9660859 1.005875 -1.8879302 170.42999
6.4911098 1.0943934 -1.8875647 170.42999
7.0495973 1.1885537 -1.8715283 170.42999
9.0837221 1.5315048 -1.7356157 170.42999
10.115172 1.6727422 -1.6844321 170.61
10.700094 1.7694705 -1.5242238 170.61
12.176522 2.0136268 -1.4432886 170.61
12.860727 2.1267736 -1.2161412 170.61
4.3929582 0.72646183 -1.9824344 170.61
21.011492 3.4746623 -0.99315864 170.61
4.6137853 0.76297987 -1.9533235 170.61
12.632977 2.0891106 -0.29728386 170.61
4.8910213 0.80882633 -1.935819 170.61
29.925571 4.9487801 0 170.61
5.2010384 0.86009377 -1.918733 170.61
29.911591 4.9464684 0.70389056 170.61
5.5894089 0.92431843 -1.9142996 170.61
29.885201 4.9421039 1.4125959 170.61
5.9692163 0.98712701 -1.8879302 170.61
29.880232 4.9412823 2.1178064 170.61
6.479342 1.0714862 -1.8831544 170.61
29.862978 4.9384289 2.8239148 170.61
6.9883947 1.1556681 -1.8543071 170.61
29.840614 4.934731 3.5370212 170.61
7.1655889 1.1849706 -1.7208943 170.61
7.1779752 1.187019 -1.5464472 170.61
9.0923672 1.5036012 -1.7363564 170.61
10.109777 1.6446706 -1.6828109 170.75999
12.913424 2.100771 -1.2206 170.75999
4.3930416 0.71466523 -1.9816209 170.75999
21.000797 3.4164345 -0.99222702 170.75999
4.6066589 0.74941677 -1.9494693 170.75999
29.912598 4.8662167 -0.70361203 170.75999
4.8747339 0.79302746 -1.9285443 170.75999
29.902891 4.8646379 0 170.75999
5.2032723 0.84647453 -1.918733 170.75999
29.91457 4.8665376 0.70365846 170.75999
5.5955501 0.91029072 -1.91558 170.75999
29.911839 4.8660936 1.4132479 170.75999
5.9736648 0.97180283 -1.8885258 170.75999
29.928511 4.8688059 2.1203177 170.75999
6.4783297 1.0539024 -1.8820518 170.75999
29.887596 4.8621497 2.8250296 170.75999
7.0238609 1.14265 -1.8629177 170.75999
7.1782708 1.1677696 -1.7232 170.75999
9.0788126 1.4769521 -1.7330236 170.75999
10.103482 1.6092738 -1.6808655 170.95
10.70845 1.7056326 -1.5239455 170.95
12.902619 2.0551178 -1.218928 170.95
4.3899746 0.69923127 -1.9791805 170.95
21.019903 3.3480315 -0.99259967 170.95
4.605474 0.73355585 -1.9479276 170.95
34.11861 5.434382 -0.80211866 170.95
4.8405404 0.77099705 -1.9139947 170.95
49.742966 7.9230161 0 170.95
5.1949148 0.82744145 -1.9146287 170.95
12.587889 2.004988 0.29593763 170.95
5.591053 0.89053804 -1.9130192 170.95
5.9825106 0.95288903 -1.8903131 170.95
6.4552088 1.02818 -1.874334 170.95
7.0237904 1.1187432 -1.8619046 170.95
7.2455263 1.1540611 -1.7384168 170.95
8.0252876 1.2782608 -1.7273303 170.95
9.0972471 1.4490016 -1.7356157 170.95
10.084538 1.5773934 -1.6769747 171.11
10.69556 1.6729677 -1.5214404 171.11
12.884699 2.0153861 -1.2166985 171.11
14.078027 2.2020431 -0.99640149 171.11
4.3864946 0.68612236 -1.9767401 171.11
20.989693 3.2831452 -0.99073631 171.11
4.6147976 0.72183287 -1.9510109 171.11
34.127724 5.3381567 -0.80197936 171.11
4.8776464 0.7629469 -1.9278167 171.11
12.701559 1.9867399 0 171.11
5.2083464 0.81467396 -1.918733 171.11
5.5991344 0.87579983 -1.9149399 171.11
5.9813757 0.93558896 -1.8891217 171.11
6.4751496 1.0128236 -1.8792955 171.11
7.047914 1.1024137 -1.8674762 171.11
7.7697825 1.2153262 -1.86338 171.11
8.4443769 1.3208442 -1.8167324 171.11
9.1051416 1.4241991 -1.7363564 171.11
10.085543 1.5451064 -1.6763262 171.28999
10.659653 1.6330601 -1.5155951 171.28999
12.853567 1.9691682 -1.2131686 171.28999
4.3904343 0.67261511 -1.9775536 171.28999
20.978182 3.21386 -0.98971146 171.28999
4.6152182 0.70705205 -1.9502401 171.28999
34.112705 5.2260709 -0.80123663 171.28999
4.8781776 0.74733746 -1.9270893 171.28999
46.137707 7.0683026 0 171.28999
5.2108798 0.79830748 -1.918733 171.28999
5.5924935 0.85677069 -1.9117386 171.28999
5.9918342 0.9179498 -1.8915046 171.28999
6.4992032 0.99567878 -1.8853595 171.28999
7.0570803 1.0811455 -1.8689957 171.28999
7.7447071 1.1864902 -1.8564632 171.28999
8.4117441 1.2886802 -1.8088317 171.28999
7.8914647 1.2089734 -1.5041757 171.28999
10.064447 1.513122 -1.672111 171.45
10.685715 1.6065253 -1.5186568 171.45
12.208663 1.8354903 -1.4437531 171.45
12.957478 1.9480696 -1.2224579 171.45
14.252628 2.1427867 -1.0078416 171.45
4.3959093 0.66089541 -1.9791805 171.45
20.996952 3.1567507 -0.99017733 171.45
4.6262999 0.69553304 -1.9540944 171.45
34.125187 5.1304927 -0.8011902 171.45
4.8912992 0.73537397 -1.9314542 171.45
46.266045 6.9557886 0 171.45
5.2112303 0.78347343 -1.918049 171.45
12.626656 1.8983327 0.29644826 171.45
5.6042328 0.84255868 -1.9149399 171.45
5.9905982 0.90064615 -1.8903131 171.45
6.4810457 0.97438163 -1.8792955 171.45
7.0715513 1.0631602 -1.8720347 171.45
7.9877729 1.2009079 -1.7169348 171.45
7.8812051 1.1848862 -1.5015835 171.45
10.057436 1.4797724 -1.6701655 171.63
12.232057 1.7997291 -1.4458439 171.63
12.971415 1.9085124 -1.223201 171.63
14.213891 2.0913208 -1.0046327 171.63
4.3889256 0.64575219 -1.9751132 171.63
20.983047 3.0872815 -0.98905933 171.63
4.6284618 0.6809957 -1.9540944 171.63
34.073879 5.0133643 -0.79961187 171.63
4.8972716 0.72054625 -1.9329091 171.63
46.210499 6.7990513 0 171.63
5.219244 0.76791877 -1.920101 171.63
5.5899811 0.82246608 -1.9091777 171.63
5.9915094 0.88154382 -1.8897173 171.63
6.5049973 0.95709443 -1.8853595 171.63
7.0882559 1.0429106 -1.8755802 171.63
7.6765213 1.1294633 -1.8384795 171.63
7.9779582 1.1738144 -1.7140239 171.63
10.046408 1.4459198 -1.6675717 171.81
11.438565 1.6462847 -1.62415 171.81
12.251414 1.7632731 -1.4474699 171.81
13.018738 1.8737094 -1.2271025 171.81
14.486986 2.0850258 -1.0234669 171.81
4.3927412 0.6322211 -1.9759266 171.81
20.961004 3.0167925 -0.98756868 171.81
4.6360583 0.66724032 -1.956407 171.81
34.101337 4.9080024 -0.7998904 171.81
4.8958235 0.70462674 -1.9314542 171.81
46.435528 6.6831894 0 171.81
5.2086091 0.74964416 -1.9153128 171.81
5.5925369 0.80490059 -1.9091777 171.81
6.009367 0.86489242 -1.8944833 171.81
6.5346127 0.94048792 -1.8930774 171.81
7.0972424 1.0214639 -1.8770998 171.81
7.6415067 1.0997965 -1.8292571 171.81
7.7318182 1.1127946 -1.6603827 171.81
7.9371285 1.1423436 -1.5108411 171.81
10.054563 1.4166558 -1.6682202 171.98
11.431633 1.6106806 -1.62248 171.98
12.25069 1.7260833 -1.4467731 171.98
13.020296 1.8345182 -1.2267309 171.98
14.69067 2.0698686 -1.0374182 171.98
4.3927884 0.61892986 -1.9751132 171.98
20.987667 2.9570954 -0.98840714 171.98
4.6343632 0.65296698 -1.9548652 171.98
14.623581 2.060416 -0.34286985 171.98
4.8960476 0.68983752 -1.9307266 171.98
12.698574 1.7891886 0 171.98
5.2145324 0.73471105 -1.9166809 171.98
5.6155391 0.79121155 -1.9162203 171.98
6.0005636 0.8454603 -1.8909088 171.98
6.5145297 0.91787648 -1.8864621 171.98
7.1136532 1.0022911 -1.8806453 171.98
7.6524444 1.078205 -1.8311017 171.98
7.7990122 1.098856 -1.6741049 171.98
8.0261154 1.1308541 -1.5271345 171.98
10.029396 1.382774 -1.6633565 172.14999
11.430475 1.5759437 -1.621645 172.14999
12.26363 1.6908125 -1.4477023 172.14999
13.023709 1.7956063 -1.2265451 172.14999
14.661171 2.0213666 -1.0349071 172.14999
4.3946056 0.60589349 -1.9751132 172.14999
20.972599 2.8915365 -0.98728913 172.14999
4.6253109 0.63770133 -1.9502401 172.14999
14.57615 2.0096445 -0.34161648 172.14999
4.9017639 0.67581654 -1.9321816 172.14999
5.1924863 0.71589905 -1.9077884 172.14999
5.6103539 0.77351135 -1.9136593 172.14999
6.0011544 0.8273918 -1.8903131 172.14999
6.5134158 0.8980183 -1.8853595 172.14999
7.1089292 0.98012304 -1.8786192 172.14999
7.7095904 1.0629375 -1.844013 172.14999
7.7983623 1.0751766 -1.6732733 172.14999
9.1411734 1.2603129 -1.7385782 172.14999
10.025631 1.3519551 -1.6620595 172.32001
11.407622 1.5383165 -1.6177481 172.32001
12.276466 1.65548 -1.4486315 172.32001
13.072396 1.7628109 -1.2306323 172.32001
14.661173 1.9770572 -1.0344886 172.32001
4.3927627 0.59236348 -1.9734862 172.32001
14.591923 1.967719 -0.68663973 172.32001
4.6381559 0.62545478 -1.9548652 172.32001
14.496843 1.9548974 -0.33962035 172.32001
4.9037476 0.66126972 -1.9321816 172.32001
14.580032 1.9661155 0 172.32001
5.213213 0.70300114 -1.9146287 172.32001
14.582048 1.9663874 0.34161648 172.32001
5.6182575 0.75762135 -1.91558 172.32001
14.542425 1.9610442 0.68431056 172.32001
5.9941225 0.80830669 -1.8873343 172.32001
14.574174 1.9653256 1.0283499 172.32001
6.527483 0.88023025 -1.8886671 172.32001
14.558434 1.9632031 1.3705276 172.32001
7.1079712 0.95850897 -1.8776063 172.32001
14.528596 1.9591794 1.7143843 172.32001
7.7165675 1.0405781 -1.8449352 172.32001
7.9081492 1.0664129 -1.6961436 172.32001
9.1487684 1.2337103 -1.7393187 172.32001
10.021542 1.3229198 -1.6607625 172.48
11.392239 1.5038624 -1.6149646 172.48
12.247562 1.6167717 -1.4446824 172.48
13.049629 1.7226505 -1.2280314 172.48
14.625099 1.9306246 -1.0315588 172.48
4.4052677 0.58152896 -1.9783671 172.48
12.705844 1.6772684 -0.59766537 172.48
4.6508622 0.6139493 -1.9594903 172.48
14.48837 1.9125754 -0.33929539 172.48
4.903728 0.64732951 -1.9314542 172.48
5.2132926 0.68819439 -1.9139447 172.48
5.6184731 0.74168128 -1.9149399 172.48
5.9944634 0.79131496 -1.8867387 172.48
6.5432577 0.86375993 -1.892526 172.48
7.08952 0.93587077 -1.8720347 172.48
7.6712089 1.0126581 -1.8334073 172.48
7.7850308 1.0276835 -1.6691151 172.48
14.505995 1.914902 2.403923 172.48
10.005849 1.2906549 -1.6575202 172.64999
11.373079 1.467014 -1.6116245 172.64999
12.285798 1.5847455 -1.4486315 172.64999
13.048758 1.6831597 -1.227474 172.64999
14.638678 1.8882437 -1.0321168 172.64999
4.4015374 0.56775451 -1.9759266 172.64999
14.606977 1.8841544 -0.68682605 172.64999
4.6526632 0.60014725 -1.9594903 172.64999
14.486049 1.868556 -0.33910972 172.64999
4.9167132 0.63420707 -1.935819 172.64999
14.597065 1.8828759 0 172.64999
5.2190394 0.67320412 -1.9153128 172.64999
14.587183 1.8816013 0.34147722 172.64999
5.6187696 0.7247653 -1.9142996 172.64999
14.579237 1.8805764 0.68552172 172.64999
5.9986787 0.7737698 -1.8873343 172.64999
14.583273 1.881097 1.0282104 172.64999
6.5324445 0.84262025 -1.8886671 172.64999
14.581349 1.8808489 1.3716424 172.64999
7.0654011 0.91136634 -1.8649436 172.64999
14.563281 1.8785181 1.7171719 172.64999
7.6027651 0.98068094 -1.8163458 172.64999
14.539471 1.8754469 2.0603185 172.64999
7.7822251 1.0038295 -1.6678675 172.64999
14.531186 1.8743782 2.4071655 172.64999
14.525962 1.8737044 2.7595069 172.64999
10.007896 1.2589679 -1.6571959 172.83
11.375667 1.43103 -1.6113461 172.83
11.849228 1.4906027 -1.396596 172.83
13.044102 1.6409149 -1.2265451 172.83
4.3942356 0.55278367 -1.9718592 172.83
14.751578 1.8557111 -0.69334775 172.83
4.6453705 0.5843758 -1.955636 172.83
12.680614 1.5951891 -0.29672679 172.83
4.9186816 0.61875761 -1.935819 172.83
12.695938 1.5971167 0 172.83
5.2211285 0.65680474 -1.9153128 172.83
5.6210189 0.70710987 -1.9142996 172.83
6.002974 0.7551589 -1.8879302 172.83
6.5178919 0.81993425 -1.8837057 172.83
7.1200604 0.89568549 -1.8786192 172.83
7.5768452 0.95314783 -1.809429 172.83
7.6320014 0.96008641 -1.6350175 172.83
7.9971571 1.0060221 -1.5186175 172.83
10.002007 1.2263201 -1.6555747 173.00999
11.38797 1.3962494 -1.6124595 173.00999
11.319522 1.3878572 -1.3336424 173.00999
13.025475 1.5970196 -1.2243158 173.00999
4.3941369 0.53875369 -1.9710457 173.00999
20.942249 2.5676746 -0.98393512 173.00999
4.6490154 0.57000369 -1.956407 173.00999
14.620548 1.7925874 -0.34198785 173.00999
4.9242992 0.60375553 -1.937274 173.00999
44.518635 5.4583139 0 173.00999
5.2324934 0.64154243 -1.918733 173.00999
5.6156898 0.68852514 -1.9117386 173.00999
5.9693117 0.7318818 -1.8766109 173.00999
6.5357018 0.80132538 -1.8881159 173.00999
7.1151576 0.87237096 -1.8765932 173.00999
7.7208123 0.94662875 -1.8430908 173.00999
8.0582829 0.9880051 -1.725667 173.00999
9.9977636 1.1957008 -1.6542777 173.17999
11.333067 1.3553988 -1.6041092 173.17999
13.01236 1.556237 -1.2226436 173.17999
4.4102292 0.52744943 -1.9775536 173.17999
20.953743 2.506001 -0.9841215 173.17999
4.6268644 0.55335832 -1.9463859 173.17999
34.018341 4.0684857 -0.79543394 173.17999
4.9205198 0.58847851 -1.9350915 173.17999
51.820709 6.1975923 0 173.17999
5.2325077 0.62579131 -1.918049 173.17999
12.634534 1.5110501 0.29542699 173.17999
5.6214709 0.67231005 -1.9130192 173.17999
5.9847269 0.71575433 -1.8807812 173.17999
6.5342326 0.78147346 -1.8870133 173.17999
7.1023455 0.84941798 -1.8725412 173.17999
7.7680311 0.92903185 -1.8536965 173.17999
8.051466 0.96292979 -1.7235879 173.17999
8.1826925 0.97862405 -1.5526855 173.17999
9.9738235 1.162832 -1.6497383 173.35001
11.11841 1.2962774 -1.3090184 173.35001
11.52752 1.3439749 -1.0827484 173.35001
14.571477 1.6988649 -1.0258387 173.35001
4.3954415 0.51245743 -1.9702322 173.35001
20.917429 2.4387293 -0.98207182 173.35001
4.6394844 0.54091001 -1.9510109 173.35001
12.718402 1.4828179 -0.29728386 173.35001
4.9129915 0.57279778 -1.9314542 173.35001
51.807087 6.0401044 0 173.35001
5.2212744 0.60873991 -1.9132607 173.35001
5.6253228 0.65584731 -1.9136593 173.35001
6.0266476 0.70263714 -1.8932918 173.35001
6.5441608 0.76297313 -1.8892184 173.35001
7.1009912 0.82789308 -1.8715283 173.35001
7.801682 0.90958548 -1.8610743 173.35001
8.0426292 0.93767715 -1.7210929 173.35001
8.068428 0.94068503 -1.5304673 173.35001
9.9870348 1.1343477 -1.6513596 173.52
10.988659 1.2481142 -1.5542852 173.52
11.132076 1.2644037 -1.3101798 173.52
13.043131 1.4814652 -1.2246872 173.52
14.64782 1.663729 -1.0308611 173.52
4.4042044 0.50023848 -1.9734862 173.52
20.930529 2.3773317 -0.9823513 173.52
4.6465702 0.52776682 -1.9533235 173.52
33.982285 3.8597767 -0.79404128 173.52
4.9239249 0.55926937 -1.9350915 173.52
44.950977 5.1056228 0 173.52
5.2342615 0.59451807 -1.917365 173.52
5.6291265 0.63936758 -1.9142996 173.52
6.0211177 0.68389076 -1.8909088 173.52
6.5693188 0.74615651 -1.8958337 173.52
7.0976491 0.80616534 -1.8700087 173.52
7.8082137 0.88687271 -1.8619965 173.52
7.9792867 0.90630358 -1.706955 173.52
9.9805489 1.103626 -1.6497383 173.69
11.011999 1.2176815 -1.5570687 173.69
11.068647 1.2239455 -1.3022816 173.69
13.035593 1.4414458 -1.2235726 173.69
14.531726 1.6068847 -1.0223509 173.69
4.4038534 0.48696795 -1.9726727 173.69
20.927561 2.3141215 -0.98188549 173.69
4.6389441 0.51296371 -1.9494693 173.69
12.693192 1.4035839 -0.29649469 173.69
4.9033422 0.54220027 -1.9263618 173.69
5.2322669 0.57857198 -1.9159968 173.69
12.661394 1.4000678 0.29575193 173.69
5.6366487 0.62328762 -1.9162203 173.69
6.0250182 0.66623259 -1.8915046 173.69
6.122448 0.67700613 -1.7662842 173.69
7.0692406 0.78170025 -1.8619046 173.69
7.8088765 0.86348754 -1.8615354 173.69
7.6222186 0.84284735 -1.6300277 173.69
9.9918156 1.0731088 -1.6510353 173.87
11.206784 1.2035949 -1.5840682 173.87
11.368704 1.2209849 -1.3371269 173.87
14.296672 1.5354451 -1.0054698 173.87
4.3999114 0.47254512 -1.9702322 173.87
20.906918 2.2453775 -0.9805811 173.87
4.6423674 0.4985846 -1.9502401 173.87
33.98336 3.6497715 -0.79353064 173.87
4.8994641 0.52619648 -1.9241794 173.87
5.2247152 0.56112802 -1.9125767 173.87
5.6329274 0.6049695 -1.9142996 173.87
5.991014 0.64342761 -1.8801854 173.87
5.9008951 0.63374895 -1.7017851 173.87
7.0697374 0.75928116 -1.8613981 173.87
7.7999406 0.83770412 -1.8587688 173.87
8.4456654 0.90705413 -1.8055052 173.87
9.9772892 1.0416135 -1.6481172 174.03999
11.275311 1.1771249 -1.5932536 174.03999
11.156922 1.1647654 -1.311806 174.03999
13.113476 1.3690264 -1.230075 174.03999
14.317039 1.4946767 -1.006586 174.03999
4.399477 0.45929855 -1.9694189 174.03999
20.893618 2.1812613 -0.97964948 174.03999
4.6401553 0.48442501 -1.9486984 174.03999
33.936371 3.5429041 -0.79218441 174.03999
4.9158273 0.51320475 -1.9299992 174.03999
5.2300959 0.54601383 -1.9139447 174.03999
5.6346974 0.58825362 -1.9142996 174.03999
5.9302335 0.61910713 -1.8605256 174.03999
6.1054358 0.637398 -1.7602202 174.03999
7.0738835 0.73850244 -1.8619046 174.03999
7.7830358 0.81253684 -1.8541576 174.03999
8.4035673 0.8773194 -1.7959412 174.03999
9.1484451 0.95508343 -1.7330236 174.03999
9.9803362 1.0120057 -1.6481172 174.21001
11.369393 1.1528561 -1.6060576 174.21001
13.073894 1.3256924 -1.2259878 174.21001
4.4080915 0.44698033 -1.9726727 174.21001
20.899998 2.1192591 -0.97964948 174.21001
4.6379004 0.47028291 -1.9471568 174.21001
33.908936 3.438365 -0.79130238 174.21001
4.9154749 0.498429 -1.9292717 174.21001
12.676994 1.2854468 0 174.21001
5.2186041 0.52916628 -1.9091564 174.21001
5.6364179 0.57153261 -1.9142996 174.21001
5.956737 0.60401297 -1.8682704 174.21001
6.5720897 0.66640967 -1.8941799 174.21001
7.0529447 0.7151683 -1.8558266 174.21001
7.779604 0.78885156 -1.8527743 174.21001
8.4041872 0.8521843 -1.7955253 174.21001
9.1316843 0.92595249 -1.7293205 174.21001
9.9813309 0.98219579 -1.6477929 174.38
11.396416 1.1214448 -1.6093978 174.38
11.920796 1.1730456 -1.4007775 174.38
13.089661 1.2880657 -1.2271025 174.38
4.4003067 0.43300468 -1.9686054 174.38
20.884323 2.0550861 -0.97862464 174.38
4.6264191 0.45525485 -1.9417608 174.38
33.930927 3.3389149 -0.79158092 174.38
4.9187865 0.48402476 -1.9299992 174.38
44.658302 4.3945241 0 174.38
5.2369843 0.51533651 -1.9153128 174.38
5.6362033 0.55462098 -1.9136593 174.38
6.0155039 0.59194541 -1.8861428 174.38
6.5204663 0.64163536 -1.8787442 174.38
7.0627375 0.6949966 -1.8578526 174.38
7.7702894 0.76462209 -1.8500075 174.38
8.3774757 0.82437116 -1.789288 174.38
9.1206999 0.89750689 -1.7267284 174.38
9.9804382 0.95045954 -1.6471444 174.56
10.315495 0.98236769 -1.4563073 174.56
12.054939 1.148019 -1.4161093 174.56
11.783287 1.1221489 -1.1042993 174.56
4.3852758 0.41761965 -1.961284 174.56
20.872778 1.9877615 -0.97778612 174.56
4.6223149 0.44019341 -1.9394482 174.56
33.915375 3.2298372 -0.79097748 174.56
4.9295559 0.46945268 -1.9336365 174.56
12.690583 1.2085527 0 174.56
5.2385774 0.49888152 -1.9153128 174.56
12.641384 1.2038674 0.2948235 174.56
5.6284866 0.53601342 -1.9104582 174.56
5.9679184 0.56833827 -1.8706534 174.56
6.3061833 0.60055202 -1.8164501 174.56
7.7610292 0.73910028 -1.8472408 174.56
8.4111834 0.80101591 -1.7959412 174.56
9.1097784 0.86754471 -1.7241364 174.56
9.9789619 0.92396367 -1.6464959 174.71001
10.361417 0.95937562 -1.462431 174.71001
12.085595 1.1190193 -1.4193616 174.71001
4.3899927 0.40647453 -1.962911 174.71001
20.85006 1.9305313 -0.9764818 174.71001
4.6197762 0.42775044 -1.9379066 174.71001
33.89584 3.1384552 -0.79032755 174.71001
4.930768 0.45654553 -1.9336365 174.71001
5.2342515 0.48464543 -1.9132607 174.71001
5.6260972 0.52092689 -1.9091777 174.71001
6.0340223 0.55869716 -1.8909088 174.71001
6.2139316 0.57535511 -1.7894378 174.71001
6.3075585 0.58402419 -1.6582905 174.71001
7.7513108 0.71770287 -1.8444741 174.71001
8.4424715 0.78169823 -1.8021785 174.71001
10.009491 0.8933233 -1.6510353 174.89999
10.360596 0.92465854 -1.4618742 174.89999
12.249506 1.0932393 -1.4381779 174.89999
13.100811 1.1692163 -1.2271025 174.89999
14.413376 1.2863595 -1.0118874 174.89999
4.4022355 0.39288905 -1.9677919 174.89999
20.840427 1.8599585 -0.97573644 174.89999
4.6266837 0.41292053 -1.9402192 174.89999
33.852291 3.0212364 -0.78907418 174.89999
4.9248323 0.43952957 -1.9307266 174.89999
48.142651 4.296617 0 174.89999
5.2227263 0.46611589 -1.9084724 174.89999
5.6410046 0.50344628 -1.9136593 174.89999
5.9217429 0.52850145 -1.8551639 174.89999
6.2943168 0.5617528 -1.81204 174.89999
6.3942547 0.57067204 -1.6805766 174.89999
7.7381406 0.69061065 -1.8407851 174.89999
8.4586573 0.75491506 -1.8050894 174.89999
9.1245546 0.81434476 -1.7259878 174.89999
9.9981833 0.86417842 -1.6487657 175.06
10.374977 0.89674604 -1.4635444 175.06
12.270323 1.0605675 -1.4402686 175.06
13.107993 1.1329703 -1.227474 175.06
4.4269795 0.38263953 -1.9783671 175.06
20.851511 1.8022701 -0.97601599 175.06
4.637012 0.40079337 -1.9440733 175.06
12.657384 1.0940226 -0.29496276 175.06
4.9260402 0.42577514 -1.9307266 175.06
12.710609 1.098623 0 175.06
5.2258797 0.45169133 -1.9091564 175.06
12.635472 1.0921286 0.29445213 175.06
5.640501 0.4875285 -1.9130192 175.06
5.9840631 0.51722383 -1.8742279 175.06
6.2288222 0.53837919 -1.7927454 175.06
6.3052254 0.54498297 -1.6567709 175.06
7.7361612 0.66866386 -1.8398629 175.06
8.4626808 0.73145956 -1.8055052 175.06
9.1052532 0.78699934 -1.7219145 175.06
9.8690777 0.82179147 -1.6270415 175.24001
9.8902378 0.8235535 -1.3947928 175.24001
12.257757 1.0206952 -1.4384103 175.24001
13.101565 1.0909586 -1.2265451 175.24001
4.4336219 0.36918476 -1.9808074 175.24001
20.811279 1.7329413 -0.97387314 175.24001
4.6639957 0.3883678 -1.9548652 175.24001
33.813831 2.815655 -0.78777438 175.24001
4.9292102 0.41045204 -1.9314542 175.24001
5.2235274 0.43495962 -1.9077884 175.24001
5.6514459 0.47059211 -1.9162203 175.24001
5.8772092 0.48939127 -1.8402702 175.24001
6.2611375 0.5213607 -1.8015658 175.24001
6.2239971 0.51826805 -1.6349914 175.24001
7.714951 0.6424188 -1.8343295 175.24001
8.4551897 0.70405799 -1.803426 175.24001
9.1135569 0.75887978 -1.7230254 175.24001
9.8519382 0.78920698 -1.6237991 175.42
9.8296013 0.78741765 -1.3858857 175.42
12.258924 0.98202282 -1.4381779 175.42
13.091033 1.0486804 -1.2252446 175.42
4.4420452 0.35583788 -1.9840614 175.42
20.818611 1.6677119 -0.9739663 175.42
4.6633534 0.37356618 -1.9540944 175.42
33.804569 2.7079751 -0.78735656 175.42
4.9286184 0.39481571 -1.9307266 175.42
5.2379818 0.4195978 -1.9125767 175.42
12.584285 1.0080864 0.2931059 175.42
5.6434526 0.45207879 -1.9130192 175.42
5.8692021 0.47016284 -1.8372915 175.42
6.2665772 0.50199527 -1.8026683 175.42
7.0780458 0.56699938 -1.8588656 175.42
7.6975322 0.61662447 -1.8297184 175.42
7.1664276 0.57407939 -1.5281509 175.42
9.1198139 0.73055893 -1.723766 175.42
9.8640747 0.76073104 -1.6254203 175.59
9.8200464 0.75733548 -1.3842157 175.59
12.247919 0.94457632 -1.4365518 175.59
13.111956 1.0112121 -1.2269167 175.59
14.332339 1.1053296 -1.0051907 175.59
4.4266863 0.34139213 -1.9767401 175.59
20.793589 1.6036302 -0.97256881 175.59
4.6644411 0.35972813 -1.9540944 175.59
33.748665 2.6027434 -0.78587109 175.59
4.918623 0.37933099 -1.9263618 175.59
12.648441 0.97546518 0 175.59
5.2523203 0.40506616 -1.917365 175.59
5.64288 0.43518668 -1.9123789 175.59
5.8781853 0.45333374 -1.8396745 175.59
6.3274608 0.48798248 -1.8197578 175.59
6.1923232 0.47756049 -1.6258743 175.59
7.7032084 0.59408206 -1.8306406 175.59
8.4573822 0.65224493 -1.8030102 175.59
9.1199827 0.7033456 -1.7233957 175.59
9.8446388 0.72985536 -1.6218536 175.75999
12.238782 0.90735072 -1.435158 175.75999
13.009645 0.96450055 -1.2170701 175.75999
14.313669 1.0611774 -1.0036561 175.75999
4.4276795 0.3282564 -1.9767401 175.75999
20.794271 1.5416321 -0.97238243 175.75999
4.6636477 0.34575042 -1.9533235 175.75999
33.752251 2.5023022 -0.78577822 175.75999
4.9122953 0.36418453 -1.9234519 175.75999
50.744736 3.76208 0 175.75999
5.2478762 0.3890636 -1.9153128 175.75999
5.6441464 0.41844201 -1.9123789 175.75999
6.0546713 0.44887722 -1.8944833 175.75999
6.4899306 0.48114622 -1.8660649 175.75999
7.68747 0.56992859 -1.8264905 175.75999
8.4456234 0.62613612 -1.8000994 175.75999
9.1220293 0.676283 -1.7233957 175.75999
9.9410048 0.71083617 -1.6374172 175.91
11.374884 0.81336635 -1.6027174 175.91
12.231208 0.87459821 -1.4339966 175.91
13.107468 0.93725556 -1.2259878 175.91
14.284557 1.0214239 -1.001424 175.91
4.4394584 0.31744555 -1.9816209 175.91
20.770338 1.4851927 -0.9710781 175.91
4.6590142 0.33314499 -1.9510109 175.91
33.742729 2.4127896 -0.78540689 175.91
4.9355311 0.35291743 -1.9321816 175.91
12.615788 0.90209782 0 175.91
5.2395039 0.37465316 -1.9118927 175.91
12.6443 0.90413654 0.29431286 175.91
5.6546721 0.40433997 -1.91558 175.91
6.0386863 0.43179908 -1.8891217 175.91
6.4758272 0.46305701 -1.8616548 175.91
7.0170202 0.5017553 -1.8416445 175.91
7.0211768 0.50205249 -1.6678656 175.91
8.4433317 0.60374433 -1.7992678 175.91
9.1276894 0.65267962 -1.7241364 175.91
9.9648476 0.68108243 -1.6409838 176.09
10.274817 0.70226836 -1.4474002 176.09
12.239841 0.83657485 -1.4346935 176.09
13.048759 0.89186323 -1.2202284 176.09
4.4331422 0.30299866 -1.9783671 176.09
20.741016 1.4176176 -0.96949428 176.09
4.6692438 0.31913584 -1.9548652 176.09
33.678329 2.3018637 -0.78373569 176.09
4.9440503 0.33791843 -1.9350915 176.09
5.2406549 0.35819095 -1.9118927 176.09
5.6370111 0.38528129 -1.9091777 176.09
6.0514417 0.413607 -1.8926961 176.09
6.4849219 0.44323474 -1.8638598 176.09
7.0011892 0.47852081 -1.837086 176.09
6.9702964 0.47640935 -1.6554155 176.09
8.44909 0.5774827 -1.8000994 176.09
9.1355772 0.62440306 -1.7252473 176.09
9.9628859 0.65125573 -1.6403353 176.25999
10.349978 0.67655927 -1.4576991 176.25999
12.230375 0.7994774 -1.4332997 176.25999
13.003657 0.85002542 -1.2157696 176.25999
4.4449611 0.29055902 -1.9832479 176.25999
20.741144 1.3558109 -0.96930796 176.25999
4.6720119 0.30540091 -1.955636 176.25999
33.661068 2.2003629 -0.78317863 176.25999
4.9450312 0.3232477 -1.9350915 176.25999
5.2285671 0.34178191 -1.9071044 176.25999
5.6324573 0.36818349 -1.907257 176.25999
6.0431166 0.39502755 -1.8897173 176.25999
6.384532 0.41734523 -1.8346423 176.25999
6.9890633 0.45686236 -1.8335404 176.25999
7.7076869 0.50383747 -1.8301795 176.25999
8.4468622 0.55215603 -1.7992678 176.25999
9.1452341 0.59780735 -1.7267284 176.25999
9.9629126 0.61983067 -1.6400112 176.44
10.340193 0.64330274 -1.4560289 176.44
12.218948 0.76018727 -1.4316735 176.44
12.904901 0.80286294 -1.2062947 176.44
4.4476757 0.27670681 -1.9840614 176.44
20.721375 1.2891555 -0.96818995 176.44
4.6692643 0.29049268 -1.9540944 176.44
12.69403 0.78974384 -0.29528773 176.44
4.9478817 0.30782652 -1.935819 176.44
12.685473 0.78921157 0 176.44
5.2164845 0.32453737 -1.9023161 176.44
12.630171 0.78577095 0.29380223 176.44
5.6373682 0.35072213 -1.9085375 176.44
6.0405169 0.3758035 -1.8885258 176.44
6.4759955 0.40289631 -1.8605522 176.44
6.9923954 0.43502349 -1.834047 176.44
7.3121881 0.45491904 -1.5572586 176.44
9.1588373 0.5698061 -1.7289503 176.44
9.9648104 0.58852828 -1.6400112 176.62
10.35798 0.61174905 -1.4582558 176.62
12.21731 0.72156239 -1.4312088 176.62
13.116088 0.77464473 -1.2258019 176.62
4.4412274 0.2623018 -1.9808074 176.62
20.715349 1.2234622 -0.96772408 176.62
4.6701541 0.27582234 -1.9540944 176.62
33.680218 1.9891758 -0.78331786 176.62
4.9376655 0.29162177 -1.9314542 176.62
5.2268591 0.30870172 -1.9057362 176.62
45.442547 2.6838665 1.0568804 176.62
5.6422253 0.33323354 -1.9098179 176.62
45.297752 2.6753149 2.1160986 176.62
6.0492911 0.3572751 -1.8909088 176.62
45.256435 2.6728747 3.1701527 176.62
6.5117745 0.3845897 -1.8704751 176.62
6.9299898 0.40928975 -1.8173324 176.62
6.939436 0.40984765 -1.6471153 176.62
7.2745233 0.42963812 -1.5489421 176.62
9.1566582 0.54079825 -1.7282096 176.62
9.9724245 0.55929106 -1.6409838 176.78999
12.189648 0.68364125 -1.4277244 176.78999
13.094469 0.7343871 -1.2235726 176.78999
14.340392 0.80426311 -1.0043538 176.78999
4.4255681 0.24820249 -1.9734862 176.78999
20.698942 1.1608745 -0.96679246 176.78999
4.6746368 0.26217121 -1.955636 176.78999
33.648041 1.8871087 -0.78243589 176.78999
4.938509 0.27697015 -1.9314542 176.78999
5.2333813 0.2935077 -1.9077884 176.78999
45.298588 2.5405152 1.0533522 176.78999
5.645081 0.31659737 -1.9104582 176.78999
45.259613 2.5383291 2.113956 176.78999
6.0426998 0.33889732 -1.8885258 176.78999
45.240261 2.5372438 3.1684785 176.78999
6.509048 0.3650519 -1.8693726 176.78999
45.411125 2.5468268 4.2433038 176.78999
6.8790164 0.38580111 -1.8036568 176.78999
9.1484108 0.51307726 -1.7263582 176.78999
9.9936552 0.53249073 -1.6442263 176.95
11.399639 0.60740566 -1.6043875 176.95
12.193493 0.6497044 -1.4279567 176.95
13.064652 0.69612235 -1.2206 176.95
4.4007006 0.23448202 -1.9620975 176.95
20.666193 1.1011543 -0.96511543 176.95
4.6698222 0.24882157 -1.9533235 176.95
33.637207 1.7922873 -0.7820645 176.95
4.9374027 0.26307905 -1.9307266 176.95
45.60331 2.4298759 0 176.95
5.2341805 0.27889222 -1.9077884 176.95
45.295525 2.413476 1.0531201 176.95
5.6497273 0.30103374 -1.9117386 176.95
45.25655 2.4113994 2.1134901 176.95
6.0531549 0.32252952 -1.8915046 176.95
45.3946 2.4187551 3.1788025 176.95
6.500443 0.34636235 -1.8666161 176.95
6.9225721 0.36885458 -1.8147999 176.95
7.1185274 0.37929565 -1.6890771 176.95
7.2163181 0.3845062 -1.5360516 176.95
9.1655083 0.4883647 -1.7293205 176.95
10.001104 0.50313413 -1.6451989 177.12
11.340073 0.57049477 -1.5957588 177.12
12.185447 0.61302376 -1.4267951 177.12
13.020917 0.65505445 -1.216327 177.12
4.4013772 0.22142386 -1.9620975 177.12
20.675356 1.0401329 -0.96539491 177.12
4.6705399 0.23496486 -1.9533235 177.12
33.610428 1.6908686 -0.78132176 177.12
4.9307194 0.24805392 -1.9278167 177.12
5.2424932 0.2637386 -1.9105245 177.12
45.364391 2.2821853 1.0545592 177.12
5.6505957 0.28426936 -1.9117386 177.12
6.0331106 0.30351287 -1.8849514 177.12
6.5360041 0.32881236 -1.8765391 177.12
6.9487567 0.34957707 -1.8213844 177.12
6.7775373 0.34096339 -1.6079203 177.12
7.0630751 0.35532817 -1.5032015 177.12
9.1767321 0.46166176 -1.7311721 177.12
9.9611549 0.47149855 -1.6383899 177.28999
11.302149 0.53497279 -1.5901918 177.28999
12.209039 0.57789928 -1.4293505 177.28999
13.102368 0.62018394 -1.2237583 177.28999
14.283092 0.67607194 -0.99988931 177.28999
4.3983645 0.20819098 -1.9604707 177.28999
20.664381 0.97812212 -0.96474278 177.28999
4.6730599 0.22119333 -1.9540944 177.28999
33.579346 1.5894355 -0.78048617 177.28999
4.946321 0.23412779 -1.9336365 177.28999
12.693788 0.60084426 0 177.28999
5.2057071 0.2464055 -1.8968437 177.28999
12.622462 0.5974682 0.29338443 177.28999
5.6457362 0.26723373 -1.9098179 177.28999
6.001564 0.28407639 -1.8748237 177.28999
6.5503936 0.31005451 -1.880398 177.28999
6.9304371 0.3280434 -1.8163193 177.28999
6.8193421 0.32278487 -1.6176038 177.28999
8.4300194 0.39902422 -1.7938621 177.28999
9.1741352 0.43424597 -1.7304314 177.28999
10.055253 0.4442969 -1.6536293 177.47
11.347303 0.50138682 -1.5963155 177.47
12.20881 0.53945297 -1.4291182 177.47
13.040591 0.57620573 -1.2178133 177.47
14.293118 0.6315493 -1.0004474 177.47
4.4190755 0.19525929 -1.9694189 177.47
20.625439 0.91134638 -0.96278626 177.47
4.6903248 0.20724459 -1.9610319 177.47
33.554211 1.4826113 -0.77978987 177.47
4.9321423 0.21792944 -1.9278167 177.47
5.2477612 0.23187524 -1.9118927 177.47
5.6579056 0.24999768 -1.9136593 177.47
5.9967051 0.26496771 -1.8730364 177.47
6.5417318 0.28905004 -1.8776417 177.47
6.9739575 0.30814815 -1.8274624 177.47
8.4195051 0.37202045 -1.7913672 177.47
9.1833076 0.40576953 -1.7319127 177.47
10.09202 0.41592324 -1.6594656 177.64
11.307185 0.46600392 -1.5904702 177.64
12.202417 0.50289917 -1.428189 177.64
13.11785 0.540627 -1.2248731 177.64
14.273001 0.58823431 -0.99891269 177.64
4.4415417 0.18304962 -1.9791805 177.64
20.628052 0.85014558 -0.96278626 177.64
4.6927629 0.19340321 -1.9618028 177.64
33.554466 1.3828828 -0.779697 177.64
4.9625502 0.20452197 -1.9394565 177.64
5.2615709 0.21684554 -1.9166809 177.64
5.6624084 0.2333653 -1.9149399 177.64
6.0241709 0.24827464 -1.8813769 177.64
6.5464025 0.26979741 -1.8787442 177.64
6.972908 0.287375 -1.8269559 177.64
9.200182 0.37916782 -1.7348751 177.64
11.239325 0.42784229 -1.5807281 177.82001
12.201952 0.46448618 -1.4279567 177.82001
13.059787 0.497141 -1.2192996 177.82001
4.4384432 0.16895622 -1.9775536 177.82001
20.634613 0.78548855 -0.96297258 177.82001
4.6951914 0.17872974 -1.9625736 177.82001
33.512691 1.2757125 -0.7786293 177.82001
4.9426899 0.18815115 -1.9314542 177.82001
49.855892 1.8978417 0 177.82001
5.2641044 0.20038629 -1.917365 177.82001
12.551524 0.47779322 0.29162043 177.82001
5.6536469 0.21521482 -1.9117386 177.82001
6.0497231 0.23029208 -1.8891217 177.82001
6.5549021 0.24952251 -1.8809493 177.82001
6.8249044 0.25980055 -1.7879553 177.82001
7.035954 0.26783448 -1.6683269 177.82001
9.1895437 0.34981421 -1.7326533 177.82001
9.6545439 0.33883122 -1.5871599 177.99001
11.042613 0.38754618 -1.5528935 177.99001
12.133793 0.42584172 -1.4198261 177.99001
13.067175 0.45859924 -1.2198569 177.99001
4.4352732 0.1556582 -1.9759266 177.99001
20.606905 0.72320992 -0.96157509 177.99001
4.7012343 0.16499224 -1.9648862 177.99001
33.504337 1.1758521 -0.77835077 177.99001
4.9543977 0.17387713 -1.935819 177.99001
49.859303 1.749838 0 177.99001
5.2590408 0.18456876 -1.9153128 177.99001
5.637218 0.19784108 -1.9059765 177.99001
6.0408397 0.21200638 -1.8861428 177.99001
6.5421643 0.22960064 -1.8770903 177.99001
6.8391805 0.24002457 -1.7915008 177.99001
7.1810513 0.25202271 -1.5273193 177.99001
9.2376814 0.32420123 -1.7415406 177.99001
9.5963306 0.30828312 -1.5774326 178.16
13.130178 0.42180833 -1.2256162 178.16
14.195993 0.45604774 -0.99319267 178.16
4.4411941 0.14267382 -1.9783671 178.16
20.590988 0.66148764 -0.96073657 178.16
4.6906362 0.15068716 -1.9602611 178.16
33.509678 1.0765018 -0.7783972 178.16
4.9548917 0.15917641 -1.935819 178.16
5.2539301 0.16878304 -1.9132607 178.16
12.584115 0.404266 0.29231673 178.16
5.6434617 0.18129678 -1.9078972 178.16
6.0547996 0.19451106 -1.8903131 178.16
6.5447383 0.21025039 -1.8776417 178.16
6.9539571 0.22339658 -1.8213844 178.16
7.0724316 0.22720258 -1.6766269 178.16
8.4311953 0.27085301 -1.7930304 178.16
9.2503891 0.29716972 -1.7437624 178.16
9.6248217 0.28061411 -1.581972 178.33
11.735011 0.34213725 -1.3729012 178.33
13.095543 0.3818039 -1.222272 178.33
4.4397717 0.12944268 -1.9775536 178.33
20.582876 0.60009897 -0.96027076 178.33
4.6947517 0.13687669 -1.9618028 178.33
33.482746 0.97619802 -0.7777009 178.33
4.9478931 0.1442571 -1.9329091 178.33
5.2431364 0.15286498 -1.9091564 178.33
90.489151 2.6382344 2.1017838 178.33
5.6458688 0.16460675 -1.9085375 178.33
6.0515332 0.176434 -1.8891217 178.33
6.5453334 0.19083087 -1.8776417 178.33
7.0222783 0.20473632 -1.839112 178.33
7.1839557 0.20945007 -1.7029107 178.33
8.4182739 0.24543692 -1.7901196 178.33
9.2551594 0.26983654 -1.744503 178.33
9.7282009 0.25474191 -1.5988325 178.5
9.6973419 0.25393385 -1.3633397 178.5
12.013984 0.31459725 -1.4054234 178.5
13.112543 0.34336403 -1.2237583 178.5
4.4383097 0.11622123 -1.9767401 178.5
20.5606 0.53839827 -0.95915276 178.5
4.6914477 0.12284988 -1.9602611 178.5
33.477501 0.87663919 -0.77751517 178.5
4.9576116 0.12981962 -1.9365466 178.5
5.2529607 0.13755362 -1.9125767 178.5
5.6558027 0.1481024 -1.9117386 178.5
6.061573 0.15872787 -1.8921003 178.5
6.5612459 0.17181227 -1.8820518 178.5
7.0828133 0.18546999 -1.8548136 178.5
7.1748185 0.18787923 -1.7006052 178.5
7.1282525 0.18665986 -1.5156763 178.5
9.2500257 0.24222043 -1.7433921 178.5
9.5868568 0.22257853 -1.5754871 178.67
9.6287527 0.22355121 -1.3535975 178.67
11.869892 0.27558386 -1.3884654 178.67
13.109523 0.30436444 -1.2233868 178.67
4.4349818 0.10296719 -1.9751132 178.67
20.56011 0.47734508 -0.9590596 178.67
4.6881013 0.10884389 -1.9587194 178.67
33.463963 0.77693444 -0.77714384 178.67
4.9542499 0.11502306 -1.9350915 178.67
12.624598 0.2931059 0 178.67
5.277771 0.12253427 -1.9214692 178.67
12.603207 0.29260927 0.29268813 178.67
5.6713715 0.1316725 -1.9168606 178.67
6.0410213 0.14025469 -1.8855472 178.67
6.5617266 0.15234393 -1.8820518 178.67
7.054318 0.16378045 -1.8472161 178.67
7.0410986 0.16347353 -1.668788 178.67
7.1150846 0.16519126 -1.5127654 178.67
9.2782116 0.21541271 -1.7485764 178.67
10.047252 0.20168835 -1.6510353 178.85001
13.092496 0.26281852 -1.2217147 178.85001
14.296203 0.28698173 -0.99988931 178.85001
4.4407635 0.089143805 -1.9775536 178.85001
20.551519 0.41255084 -0.95859373 178.85001
4.6865749 0.094078228 -1.9579486 178.85001
33.454243 0.67155987 -0.7768653 178.85001
4.9638996 0.099645235 -1.9387289 178.85001
5.2781296 0.10595308 -1.9214692 178.85001
5.6641793 0.11370264 -1.9142996 178.85001
6.0567031 0.12158214 -1.8903131 178.85001
6.5833163 0.13215338 -1.8881159 178.85001
7.0857487 0.14223918 -1.8553201 178.85001
6.9695854 0.13990733 -1.6517266 178.85001
9.2690172 0.18606609 -1.7467248 178.85001
10.103057 0.17282182 -1.660114 179.02
10.917099 0.18674675 -1.5345227 179.02
11.752184 0.20103161 -1.3745273 179.02
13.0972 0.22403933 -1.2220863 179.02
14.296991 0.24456283 -0.99988931 179.02
4.4245667 0.075686179 -1.9702322 179.02
20.548658 0.35150319 -0.9584074 179.02
4.6942143 0.080298737 -1.9610319 179.02
33.412106 0.57154399 -0.77584404 179.02
4.9641738 0.084916629 -1.9387289 179.02
5.2803001 0.09032426 -1.9221532 179.02
12.616754 0.21582086 0.29296663 179.02
5.6607027 0.096831389 -1.9130192 179.02
6.0608549 0.10367635 -1.8915046 179.02
6.5510015 0.11206074 -1.8787442 179.02
7.0938773 0.12134712 -1.8573462 179.02
9.2773895 0.15869805 -1.7482061 179.02
10.172617 0.14204577 -1.6714625 179.2
10.897828 0.15217227 -1.5317391 179.2
12.032821 0.1680208 -1.4072819 179.2
13.089874 0.18278101 -1.2213432 179.2
14.321629 0.19998065 -1.0015634 179.2
4.422956 0.061760128 -1.9694189 179.2
20.459768 0.28569081 -0.95421493 179.2
4.690753 0.065499522 -1.9594903 179.2
33.359756 0.46582034 -0.77459061 179.2
4.953239 0.06916476 -1.9343641 179.2
51.554974 0.71989 0 179.2
5.2843161 0.073787771 -1.9235213 179.2
5.6704521 0.079179592 -1.9162203 179.2
6.0687866 0.084741756 -1.8938876 179.2
6.5782337 0.091855437 -1.8864621 179.2
7.096158 0.099087499 -1.8578526 179.2
7.528791 0.10512859 -1.7840675 179.2
9.2935638 0.12977107 -1.7511685 179.2
10.169046 0.11181901 -1.670814 179.37
10.896251 0.11981536 -1.5314608 179.37
12.233888 0.13452403 -1.4307443 179.37
13.122219 0.14429215 -1.2243158 179.37
14.296224 0.15720153 -0.99974978 179.37
