# .PCD v0.7 - Point Cloud Data file format
VERSION 0.7
FIELDS x y z intensity
SIZE 4 4 4 4
TYPE F F F F
COUNT 1 1 1 1
WIDTH 1155
HEIGHT 1
VIEWPOINT 0 0 0 1 0 0 0
POINTS 1155
DATA ascii
-3.6779575 -5.2312632 -2.1607897 305.10999
-4.0002995 -5.6897392 -2.1703155 305.10999
-4.3709726 -6.216958 -2.179189 305.10999
-4.8206367 -6.8565278 -2.1941705 305.10999
-5.3737841 -7.6432853 -2.21383 305.10999
-6.0027251 -8.5378456 -2.2184176 305.10999
-6.8276601 -9.711175 -2.2366374 305.10999
-7.9909668 -11.286047 -2.2719569 305.29999
-9.2049551 -13.000625 -2.2387385 305.29999
-11.713099 -16.543003 -2.3704035 305.29999
-15.661274 -22.119211 -2.5285184 305.29999
-2.6078222 -3.6831591 -2.009279 305.29999
-2.784435 -3.9325986 -2.0126786 305.29999
-3.0240283 -4.2709885 -2.0434859 305.29999
-3.4155238 -4.8239174 -2.1513066 305.29999
-3.6996646 -5.2252235 -2.1633506 305.29999
-4.0202484 -5.6780005 -2.1709111 305.29999
-4.3893428 -6.1992912 -2.1780863 305.29999
-4.839993 -6.8357673 -2.192651 305.29999
-5.3934774 -7.6174812 -2.2115245 305.29999
-6.0343962 -8.5226831 -2.2196653 305.29999
-6.8632331 -9.6932917 -2.2377481 305.29999
-8.0267086 -11.265502 -2.2726054 305.47
-9.2538319 -12.987773 -2.2412436 305.47
-11.773659 -16.524355 -2.3727264 305.47
-15.75919 -22.118055 -2.5337205 305.47
-2.6176786 -3.6739175 -2.0084655 305.47
-2.7950201 -3.9228165 -2.0119078 305.47
-3.0215526 -4.2407556 -2.0333011 305.47
-3.4320028 -4.816823 -2.1526747 305.47
-3.7129529 -5.2111373 -2.16207 305.47
-4.0392933 -5.669157 -2.1721027 305.47
-4.4077172 -6.1862407 -2.1780863 305.47
-4.8613763 -6.8229523 -2.1931574 305.47
-5.4250894 -7.6141248 -2.2152133 305.47
-6.0630622 -8.5095205 -2.2209127 305.47
-6.8931041 -9.6744862 -2.2381184 305.47
-8.0600986 -11.241637 -2.2726054 305.64001
-9.3004045 -12.971526 -2.243192 305.64001
-11.819163 -16.484507 -2.3720295 305.64001
-15.84331 -22.097094 -2.5366929 305.64001
-2.6275032 -3.6646495 -2.007652 305.64001
-2.8098729 -3.9190059 -2.0142202 305.64001
-3.0200095 -4.2120891 -2.0238438 305.64001
-3.4429941 -4.8020368 -2.1506226 305.64001
-3.7306063 -5.2031775 -2.1633506 305.64001
-4.0538716 -5.6540442 -2.1709111 305.64001
-4.4249325 -6.1715732 -2.1775351 305.64001
-4.8793445 -6.8053536 -2.1921446 305.64001
-5.4465232 -7.5964131 -2.2147522 305.64001
-6.088284 -8.4914942 -2.2209127 305.64001
-6.9275045 -9.6619778 -2.23997 305.64001
-8.0953751 -11.21626 -2.2726054 305.82001
-9.3480644 -12.95188 -2.2448621 305.82001
-11.873218 -16.450516 -2.3724942 305.82001
-15.955773 -22.106956 -2.5435669 305.82001
-2.6325872 -3.6474879 -2.0027711 305.82001
-2.8178508 -3.9041734 -2.011137 305.82001
-3.0190535 -4.1829424 -2.0143867 305.82001
-3.4558632 -4.7881489 -2.1492546 305.82001
-3.7469342 -5.1914315 -2.1633506 305.82001
-4.0760837 -5.6474729 -2.1732941 305.82001
-4.4431739 -6.1560822 -2.1769838 305.82001
-4.9074941 -6.7994041 -2.1951835 305.82001
-5.4692221 -7.5776868 -2.2142911 305.82001
-6.1137857 -8.4707394 -2.2204969 305.82001
-6.9578242 -9.6401672 -2.23997 305.82001
-8.1313028 -11.199998 -2.2739024 305.98001
-9.398159 -12.944957 -2.2482023 305.98001
-11.915608 -16.412472 -2.3717973 305.98001
-16.053713 -22.112268 -2.5493262 305.98001
-2.6416893 -3.6386435 -2.0019577 305.98001
-2.8330791 -3.9022627 -2.0142202 305.98001
-3.0307226 -4.1744952 -2.0143867 305.98001
-3.4449296 -4.7450213 -2.1342056 305.98001
-3.7580771 -5.1763482 -2.1614299 305.98001
-4.0895948 -5.6329784 -2.1721027 305.98001
-4.4626069 -6.1467624 -2.1780863 305.98001
-4.9207788 -6.7778449 -2.192651 305.98001
-5.494935 -7.5686836 -2.2161355 305.98001
-6.142014 -8.4599657 -2.2221601 305.98001
-6.9858723 -9.6222897 -2.2403402 305.98001
-8.1641197 -11.17121 -2.2732539 306.16
-9.4457922 -12.924962 -2.2498724 306.16
-12.087837 -16.540152 -2.3957243 306.16
-16.144251 -22.090664 -2.5526705 306.16
-2.649873 -3.6259012 -1.9995173 306.16
-2.8344355 -3.8784432 -2.0065119 306.16
-3.0405245 -4.1604409 -2.0122042 306.16
-3.3877399 -4.6355467 -2.0897431 306.16
-3.7720845 -5.1614566 -2.1601493 306.16
-4.1095243 -5.6231856 -2.1732941 306.16
-4.4648795 -6.1094294 -2.1698172 306.16
-4.9466143 -6.7686009 -2.1946771 306.16
-5.5175376 -7.5498123 -2.2156744 306.16
-6.1685615 -8.4406281 -2.2221601 306.16
-7.0183864 -9.6034689 -2.241081 306.16
-8.1929464 -11.145188 -2.2726054 306.32001
-9.4865408 -12.904917 -2.2509856 306.32001
-12.230457 -16.637575 -2.414773 306.32001
-16.254234 -22.111279 -2.5602875 306.32001
-2.6567416 -3.6140707 -1.9970769 306.32001
-2.8485341 -3.8749738 -2.0088243 306.32001
-3.0543375 -4.1549363 -2.0136592 306.32001
-3.3483536 -4.5548978 -2.0575931 306.32001
-3.7887278 -5.1539564 -2.1614299 306.32001
-4.1252112 -5.6116881 -2.1732941 306.32001
-4.4864779 -6.1031332 -2.1720223 306.32001
-4.9643502 -6.753202 -2.1941705 306.32001
-5.5397515 -7.535943 -2.2161355 306.32001
-6.1967425 -8.4296741 -2.2238235 306.32001
-7.045177 -9.5838327 -2.241081 306.32001
-8.2349625 -11.128913 -2.2745509 306.5
-9.5423508 -12.895747 -2.2546043 306.5
-12.307479 -16.632603 -2.4196513 306.5
-16.33428 -22.074512 -2.5619595 306.5
-2.6680825 -3.6057065 -1.9970769 306.5
-2.8606937 -3.8660057 -2.0088243 306.5
-3.0585103 -4.1333394 -2.0078394 306.5
-3.3212843 -4.4884582 -2.0322838 306.5
-3.8026466 -5.1389818 -2.1601493 306.5
-4.1428204 -5.5987005 -2.1732941 306.5
-4.5136342 -6.0998263 -2.1758814 306.5
-4.9878435 -6.7406836 -2.1951835 306.5
-5.5622416 -7.5169377 -2.2156744 306.5
-6.2208672 -8.4070196 -2.2229917 306.5
-7.0764198 -9.5632324 -2.2414513 306.5
-8.269125 -11.106013 -2.2748752 306.67001
-9.5864849 -12.87532 -2.255996 306.67001
-12.372196 -16.616726 -2.4226713 306.67001
-16.43895 -22.078659 -2.5680904 306.67001
-2.6787691 -3.5977743 -1.9970769 306.67001
-35.48082 -47.653225 -2.7705958 306.67001
-2.8710496 -3.8560207 -2.0080535 306.67001
-3.0729859 -4.1272349 -2.0092943 306.67001
-3.3054054 -4.4393907 -2.0144987 306.67001
-3.8190091 -5.1291966 -2.1607897 306.67001
-4.1537127 -5.5787272 -2.1703155 306.67001
-4.5351572 -6.0910335 -2.1775351 306.67001
-5.0055103 -6.7227507 -2.1941705 306.67001
-5.5845203 -7.5004015 -2.2156744 306.67001
-6.2516255 -8.3963709 -2.225071 306.67001
-7.105937 -9.5437708 -2.2418215 306.67001
-8.299674 -11.078271 -2.2742267 306.84
-9.6365194 -12.862671 -2.2587795 306.84
-12.447648 -16.61492 -2.4277818 306.84
-16.531847 -22.066442 -2.5723634 306.84
-2.6861455 -3.5854237 -1.9946365 306.84
-35.600491 -47.518959 -2.768919 306.84
-2.8791585 -3.8430541 -2.0057411 306.84
-3.08075 -4.1121354 -2.0063844 306.84
-3.3185627 -4.429564 -2.0144987 306.84
-3.8285306 -5.110261 -2.1575885 306.84
-4.1679578 -5.5633225 -2.1691239 306.84
-4.5543623 -6.0790892 -2.1780863 306.84
-5.0289154 -6.7125149 -2.1956902 306.84
-5.6032491 -7.4791265 -2.2142911 306.84
-6.2729917 -8.3730879 -2.2238235 306.84
-7.1424718 -9.5336552 -2.2444136 306.84
-8.3356247 -11.053718 -2.2745509 307.01999
-9.6840363 -12.841822 -2.2604494 307.01999
-12.517724 -16.599522 -2.4312663 307.01999
-16.645451 -22.073225 -2.5792375 307.01999
-2.6984963 -3.5784261 -1.99545 307.01999
-2.8901064 -3.8325167 -2.0049701 307.01999
-3.0936534 -4.1024365 -2.0063844 307.01999
-3.3358569 -4.4236183 -2.0165508 307.01999
-3.8525519 -5.1087976 -2.16207 307.01999
-4.186564 -5.5517254 -2.1697197 307.01999
-4.5745955 -6.0662866 -2.1786377 307.01999
-5.0488133 -6.695138 -2.1951835 307.01999
-5.6325765 -7.4692554 -2.2165968 307.01999
-6.303977 -8.3595877 -2.2254868 307.01999
-7.1723871 -9.5111694 -2.2444136 307.01999
-8.3659992 -11.025792 -2.2739024 307.19
-9.7340679 -12.82881 -2.2632329 307.19
-12.596939 -16.601871 -2.4370739 307.19
-16.744574 -22.068157 -2.5844395 307.19
-2.7046843 -3.5645816 -1.9921961 307.19
-2.8981185 -3.819514 -2.0026577 307.19
-3.1013076 -4.0873032 -2.0034745 307.19
-34.66095 -45.680668 0 307.19
-3.3455594 -4.4092093 -2.0144987 307.19
-34.591183 -45.588718 1.3286324 307.19
-3.8642571 -5.0928159 -2.1601493 307.19
-4.2030182 -5.539279 -2.1697197 307.19
-4.5914121 -6.0511551 -2.1780863 307.19
-5.068656 -6.6801286 -2.1951835 307.19
-5.65589 -7.4540606 -2.2170579 307.19
-6.3299351 -8.3424044 -2.2259026 307.19
-7.1958237 -9.4835844 -2.2429326 307.19
-8.3998747 -11.00249 -2.2742267 307.35999
-9.7805014 -12.810891 -2.2651813 307.35999
-12.660607 -16.583368 -2.4398615 307.35999
-16.888523 -22.121262 -2.5965154 307.35999
-2.7163575 -3.5579932 -1.9930096 307.35999
-2.9083185 -3.8094316 -2.0018868 307.35999
-3.1100297 -4.0736408 -2.001292 307.35999
-3.3552055 -4.3947821 -2.0124466 307.35999
-3.878201 -5.0798221 -2.1595092 307.35999
-4.2229104 -5.5313368 -2.1715069 307.35999
-4.6105127 -6.0390334 -2.1786377 307.35999
-5.0919766 -6.6696739 -2.196703 307.35999
-5.6791625 -7.4387937 -2.217519 307.35999
-6.3546596 -8.3235865 -2.2259026 307.35999
-7.2346644 -9.4762516 -2.2462652 307.35999
-8.4312801 -10.975954 -2.2739024 307.53
-9.8329468 -12.800663 -2.2685215 307.53
-12.731538 -16.574087 -2.4440429 307.53
-16.977133 -22.101059 -2.6000452 307.53
-2.7235632 -3.5455711 -1.9905691 307.53
-2.9184842 -3.7993221 -2.001116 307.53
-3.1277771 -4.0717826 -2.0049295 307.53
-3.3613613 -4.375865 -2.0083423 307.53
-3.8817136 -5.053267 -2.1531069 307.53
-4.2311625 -5.508184 -2.1673367 307.53
-4.630753 -6.0283766 -2.1797402 307.53
-5.107029 -6.6483989 -2.1946771 307.53
-5.7047653 -7.4265404 -2.2189023 307.53
-6.3817115 -8.3077984 -2.2267342 307.53
-7.2651434 -9.4578619 -2.2470059 307.53
-8.4691372 -10.961737 -2.2758479 307.69
-9.8783417 -12.785692 -2.2707484 307.69
-12.80692 -16.576197 -2.4496183 307.69
-17.082613 -22.110294 -2.6067336 307.69
-2.7345707 -3.5393975 -1.9913826 307.69
-31.528078 -40.807285 -2.4048228 307.69
-2.9256976 -3.7867763 -1.9988034 307.69
-3.1402745 -4.0645065 -2.005657 307.69
-3.3804619 -4.3753848 -2.0124466 307.69
-3.8436804 -4.9749355 -2.1242964 307.69
-4.2465277 -5.496347 -2.1673367 307.69
-4.655797 -6.0260711 -2.1835992 307.69
-5.1279407 -6.6371737 -2.1956902 307.69
-5.725482 -7.4105806 -2.2189023 307.69
-6.4048867 -8.2899446 -2.2267342 307.69
-7.2903252 -9.4359818 -2.2466354 307.69
-8.5030174 -10.930476 -2.2751994 307.88
-9.9279823 -12.762243 -2.2724185 307.88
-12.882553 -16.560289 -2.4535673 307.88
-17.182739 -22.088102 -2.6108208 307.88
-2.7462926 -3.5303099 -1.9913826 307.88
-31.502531 -40.495937 -2.3926179 307.88
-2.9393721 -3.7785101 -1.9995743 307.88
-3.1491601 -4.0481887 -2.0027471 307.88
-3.385721 -4.3522835 -2.0069742 307.88
-3.7682481 -4.8440151 -2.0737178 307.88
-4.2600417 -5.4762073 -2.1649537 307.88
-4.6686721 -6.0014939 -2.1802914 307.88
-5.152298 -6.6231866 -2.196703 307.88
-5.7500248 -7.3915534 -2.2189023 307.88
-6.4347444 -8.2717476 -2.2275658 307.88
-7.3239894 -9.4148569 -2.2473762 307.88
-8.538373 -10.912907 -2.2764962 308.04001
-9.972126 -12.745388 -2.2743669 308.04001
-12.950781 -16.552412 -2.4577489 308.04001
-17.297119 -22.107473 -2.6188095 308.04001
-2.7561405 -3.5226271 -1.9913826 308.04001
-31.562557 -40.340149 -2.3886118 308.04001
-2.9419518 -3.7601128 -1.9941783 308.04001
-3.1547124 -4.0320425 -1.9991096 308.04001
-3.402494 -4.3487325 -2.0097103 308.04001
-3.731555 -4.7693057 -2.0461879 308.04001
-4.2753177 -5.4642897 -2.1649537 308.04001
-4.683044 -5.985405 -2.179189 308.04001
-5.170773 -6.6087728 -2.196703 308.04001
-5.7718425 -7.3770003 -2.2193635 308.04001
-6.4638457 -8.2614498 -2.229645 308.04001
-7.3502522 -9.3943672 -2.2473762 308.04001
-8.5750561 -10.88913 -2.2771447 308.22
-10.039075 -12.748229 -2.2804904 308.22
-13.01255 -16.52413 -2.4596071 308.22
-17.403446 -22.099958 -2.624383 308.22
-2.7626719 -3.5082092 -1.9881287 308.22
-31.691607 -40.243935 -2.3887982 308.22
-2.9480412 -3.7436025 -1.9903241 308.22
-3.1650586 -4.0191846 -1.9976547 308.22
-3.4114883 -4.3321157 -2.0069742 308.22
-3.6996295 -4.6980152 -2.0205784 308.22
-4.2877383 -5.4448314 -2.1625707 308.22
-4.7077713 -5.9782152 -2.1819453 308.22
-5.1927066 -6.5940156 -2.1972096 308.22
-5.7949896 -7.3588314 -2.2193635 308.22
-6.4885573 -8.2395658 -2.2292292 308.22
-7.3809447 -9.3727741 -2.2477465 308.22
-8.605546 -10.857496 -2.2761719 308.39999
-10.101218 -12.744566 -2.2855008 308.39999
-13.091543 -16.517416 -2.4647179 308.39999
-17.480211 -22.054539 -2.6254976 308.39999
-2.7736797 -3.4995127 -1.9881287 308.39999
-31.80547 -40.128517 -2.3878665 308.39999
-2.9689579 -3.7458928 -1.9964908 308.39999
-3.1788268 -4.0106812 -1.9983821 308.39999
-37.65398 -47.507496 0 308.39999
-3.425081 -4.3213768 -2.0069742 308.39999
-3.7131937 -4.6848845 -2.0199382 308.39999
-4.3048224 -5.431334 -2.1625707 308.39999
-4.7241411 -5.9603825 -2.1808429 308.39999
-5.213397 -6.5776696 -2.1972096 308.39999
-5.820497 -7.3436399 -2.2202857 308.39999
-6.5180559 -8.2237406 -2.2304766 308.39999
-7.4127955 -9.3526201 -2.248487 308.39999
-8.6389532 -10.833458 -2.2764962 308.57001
-10.173562 -12.757896 -2.2932944 308.57001
-13.159071 -16.501797 -2.4682024 308.57001
-17.634964 -22.114676 -2.6388741 308.57001
-2.7829115 -3.4898391 -1.9873153 308.57001
-31.941832 -40.05584 -2.3891709 308.57001
-2.9777579 -3.7341814 -1.9949492 308.57001
-3.1883898 -3.9983187 -1.9969271 308.57001
-3.4355443 -4.3082566 -2.0056062 308.57001
-3.7282588 -4.6753278 -2.0205784 308.57001
-4.3197284 -5.4170451 -2.1619749 308.57001
-4.7406063 -5.9448366 -2.1802914 308.57001
-5.2316837 -6.5606599 -2.196703 308.57001
-5.8410473 -7.3248162 -2.2198246 308.57001
-6.5436473 -8.2058945 -2.2308924 308.57001
-7.4380617 -9.3275118 -2.2477465 308.57001
-8.6685886 -10.8047 -2.2758479 308.73999
-10.27334 -12.804894 -2.3072116 308.73999
-13.220407 -16.478176 -2.4705253 308.73999
-17.706732 -22.070021 -2.6398029 308.73999
-2.7921104 -3.4801416 -1.9865018 308.73999
-32.075542 -39.979588 -2.3902888 308.73999
-2.9853599 -3.7210114 -1.9926367 308.73999
-38.321651 -47.764862 -1.421754 308.73999
-3.2037365 -3.9932003 -1.9991096 308.73999
-3.4471359 -4.2965784 -2.0049222 308.73999
-3.7326288 -4.6524224 -2.0154567 308.73999
-4.339366 -5.4086719 -2.1637621 308.73999
-4.757021 -5.929245 -2.1797402 308.73999
-5.25597 -6.5511446 -2.198729 308.73999
-5.8639727 -7.3089709 -2.2202857 308.73999
-6.56919 -8.1879683 -2.2313082 308.73999
-7.468164 -9.3084679 -2.248487 308.73999
-8.6981287 -10.775861 -2.2751994 308.91
-10.33368 -12.802097 -2.312222 308.91
-13.300432 -16.47752 -2.4763329 308.91
-17.800905 -22.053026 -2.6440761 308.91
-2.8012764 -3.4704204 -1.9856883 308.91
-32.215355 -39.910671 -2.3918726 308.91
-2.9859548 -3.699213 -1.9856991 308.91
-3.2155704 -3.9836771 -1.9991096 308.91
-3.4563277 -4.2819443 -2.0028698 308.91
-3.742846 -4.6369038 -2.013536 308.91
-4.3505983 -5.3898301 -2.1613791 308.91
-4.773385 -5.9136086 -2.179189 308.91
-5.274169 -6.5340157 -2.1982226 308.91
-5.8868551 -7.2930546 -2.2207468 308.91
-6.5934553 -8.1684408 -2.2313082 308.91
-7.5031571 -9.2954445 -2.2507088 308.91
-8.731308 -10.751537 -2.2755237 309.07999
-10.381607 -12.783679 -2.3144486 309.07999
-13.366795 -16.459574 -2.4795852 309.07999
-17.925261 -22.072765 -2.652808 309.07999
-2.8127127 -3.4635117 -1.9865018 309.07999
-32.370152 -39.859886 -2.3945744 309.07999
-2.9969175 -3.6903372 -1.9856991 309.07999
-3.2203293 -3.9654417 -1.9947448 309.07999
-3.4690173 -4.2716703 -2.0028698 309.07999
-3.7625599 -4.6331325 -2.016737 309.07999
-4.3725891 -5.3843083 -2.1643579 309.07999
-4.7896981 -5.8979273 -2.1786377 309.07999
-5.2971916 -6.5228438 -2.1997421 309.07999
-5.9060144 -7.2725344 -2.2198246 309.07999
-6.6225958 -8.1549168 -2.2329717 309.07999
-7.5319428 -9.2746668 -2.2510791 309.07999
-10.436757 -12.769403 -2.3177888 309.26001
-13.438552 -16.442108 -2.4833019 309.26001
-18.01594 -22.042555 -2.6559663 309.26001
-2.820111 -3.4504142 -1.9840614 309.26001
-32.543259 -39.816776 -2.3981149 309.26001
-3.0131676 -3.6866198 -1.9887824 309.26001
-3.2315922 -3.9538627 -1.9940172 309.26001
-3.4812305 -4.2592959 -2.0021858 309.26001
-3.7734995 -4.6168876 -2.0148163 309.26001
-4.3858581 -5.3661103 -2.1625707 309.26001
-4.8252363 -5.9036908 -2.1863556 309.26001
-5.3139844 -6.5016756 -2.1982226 309.26001
-5.9349904 -7.2614784 -2.2221301 309.26001
-6.6457062 -8.1310415 -2.2321398 309.26001
-7.5622869 -9.2524805 -2.2514496 309.26001
-8.792448 -10.696486 -2.2748752 309.42001
-10.478663 -12.747859 -2.3191805 309.42001
-13.497028 -16.419863 -2.485625 309.42001
-18.129269 -22.055231 -2.6635833 309.42001
-2.833216 -3.4467599 -1.9865018 309.42001
-32.712681 -39.796738 -2.4024005 309.42001
-3.0175915 -3.6710627 -1.9849281 309.42001
-3.2402549 -3.9419446 -1.9925623 309.42001
-3.4919176 -4.248106 -2.0015018 309.42001
-3.7815647 -4.6004772 -2.0122554 309.42001
-4.3923392 -5.3435173 -2.1584003 309.42001
-4.827054 -5.8723712 -2.1797402 309.42001
-5.3321199 -6.4868112 -2.1982226 309.42001
-5.9527736 -7.2418699 -2.2212079 309.42001
-6.6696286 -8.1139631 -2.2325556 309.42001
-7.5831027 -9.2252531 -2.2499683 309.42001
-8.8272667 -10.670332 -2.2751994 309.60001
-10.517398 -12.71335 -2.3189023 309.60001
-13.570072 -16.4034 -2.489574 309.60001
-18.254318 -22.06568 -2.6717579 309.60001
-2.8382072 -3.4308031 -1.9824344 309.60001
-38.522285 -46.565445 -2.8182974 309.60001
-3.0338151 -3.6672523 -1.9880116 309.60001
-3.2538104 -3.933181 -1.9932898 309.60001
-3.5052464 -4.2371149 -2.0015018 309.60001
-3.7959991 -4.5885744 -2.0122554 309.60001
-4.4151897 -5.3370476 -2.1613791 309.60001
-4.845479 -5.8571777 -2.1797402 309.60001
-5.3561721 -6.4745002 -2.1997421 309.60001
-5.9779763 -7.2261319 -2.2221301 309.60001
-6.6975803 -8.0959845 -2.2333875 309.60001
-7.614553 -9.2044134 -2.2507088 309.60001
-8.8626747 -10.648645 -2.2761719 309.76999
-10.584213 -12.717101 -2.3253043 309.76999
-13.633931 -16.381386 -2.4923618 309.76999
-18.338816 -22.03438 -2.6745446 309.76999
-2.8448677 -3.4181538 -1.9799939 309.76999
-38.577206 -46.351131 -2.8122416 309.76999
-3.0458632 -3.6596532 -1.9887824 309.76999
-3.2630825 -3.9206457 -1.9918349 309.76999
-3.5141959 -4.2223625 -1.9994497 309.76999
-3.8059607 -4.5729222 -2.0103347 309.76999
-4.4261203 -5.3180542 -2.1589961 309.76999
-4.8652959 -5.8457308 -2.1808429 309.76999
-5.3716459 -6.4541183 -2.1982226 309.76999
-6.0068598 -7.2173381 -2.2248969 309.76999
-6.7228236 -8.0775805 -2.2338033 309.76999
-7.6456013 -9.1863117 -2.2518198 309.76999
-8.8942308 -10.622302 -2.2761719 309.94
-10.643514 -12.711455 -2.3300362 309.94
-13.709257 -16.372845 -2.4972401 309.94
-18.442465 -22.025675 -2.6801181 309.94
-2.8596888 -3.4153013 -1.9832479 309.94
-3.0531538 -3.6463549 -1.9864699 309.94
-3.2711129 -3.9066615 -1.9896524 309.94
-3.527915 -4.2133579 -2.0001338 309.94
-3.8158627 -4.5572515 -2.008414 309.94
-4.4320741 -5.2931876 -2.1542301 309.94
-4.8826189 -5.8312693 -2.1808429 309.94
-5.39574 -6.4440856 -2.2002485 309.94
-6.0244994 -7.1950073 -2.2235136 309.94
-6.7442489 -8.0545979 -2.2329717 309.94
-7.6778712 -9.1696148 -2.2533009 309.94
-8.9251299 -10.598933 -2.2764962 310.10001
-10.682796 -12.686229 -2.3308711 310.10001
-13.79587 -16.383121 -2.5046737 310.10001
-18.550077 -22.028925 -2.6868064 310.10001
-2.8633306 -3.4003143 -1.9791805 310.10001
-3.0633245 -3.6378148 -1.9864699 310.10001
-3.2820096 -3.8975117 -1.9896524 310.10001
-3.5360353 -4.1991768 -1.9980817 310.10001
-3.8310149 -4.5494766 -2.0096943 310.10001
-4.9100289 -5.8308468 -2.1858041 310.10001
-5.4149609 -6.4304724 -2.2007551 310.10001
-6.0433149 -7.1766672 -2.2230525 310.10001
-6.7704954 -8.0402222 -2.2342191 310.10001
-7.7047133 -9.149641 -2.2536714 310.10001
-8.9602289 -10.569278 -2.2764962 310.29001
-10.741456 -12.670373 -2.3344896 310.29001
-13.889943 -16.384256 -2.5118749 310.29001
-18.641054 -21.988554 -2.6894073 310.29001
-2.8757722 -3.3921943 -1.9799939 310.29001
-3.0646305 -3.6149671 -1.9795322 310.29001
-3.291302 -3.8823435 -1.9874699 310.29001
-3.5438643 -4.1802602 -1.9946615 310.29001
-3.8448553 -4.5353022 -2.0090542 310.29001
-4.1939473 -4.947083 -2.023761 310.29001
-4.918149 -5.8013344 -2.1808429 310.29001
-5.4312506 -6.4065771 -2.198729 310.29001
-6.0708556 -7.1610408 -2.2244358 310.29001
-6.7971206 -8.0177259 -2.2342191 310.29001
-7.7375546 -9.1270399 -2.2544119 310.29001
-8.988265 -10.53507 -2.2751994 310.47
-10.797919 -12.656152 -2.3381081 310.47
-13.964555 -16.367739 -2.5160565 310.47
-18.7514 -21.978361 -2.6953523 310.47
-2.4150584 -2.8306701 -0.26019165 310.47
-2.8876009 -3.3845329 -1.9808074 310.47
-3.0771699 -3.6067255 -1.9803032 310.47
-3.3107376 -3.8804879 -1.9918349 310.47
-3.5594192 -4.1719656 -1.9960296 310.47
-3.8553948 -4.5188766 -2.0071335 310.47
-4.2057509 -4.9295259 -2.0219738 310.47
-4.9500761 -5.8019428 -2.1869068 310.47
-5.4513507 -6.389483 -2.198729 310.47
-6.0945859 -7.1434135 -2.2248969 310.47
-6.8273544 -8.002286 -2.2358823 310.47
-7.7636385 -9.0996962 -2.2536714 310.47
-9.0253601 -10.518916 -2.2771447 310.63
-10.842248 -12.636471 -2.3400564 310.63
-14.042546 -16.366369 -2.5218639 310.63
-2.8946614 -3.3736827 -1.9791805 310.63
-3.0860281 -3.5967178 -1.9795322 310.63
-3.3203478 -3.8698137 -1.9911073 310.63
-3.5722795 -4.1634359 -1.9967136 310.63
-3.8667653 -4.5066547 -2.0064933 310.63
-4.2257166 -4.9250069 -2.0249524 310.63
-4.9650068 -5.7866383 -2.1863556 310.63
-5.4716921 -6.3771715 -2.1997421 310.63
-6.1132431 -7.1248894 -2.2244358 310.63
-6.8496742 -7.9831891 -2.2358823 310.63
-7.7928586 -9.0824556 -2.2547822 310.63
-9.0519123 -10.483042 -2.2755237 310.81
-10.894836 -12.617337 -2.34284 310.81
-14.122455 -16.355249 -2.5269747 310.81
-2.4141967 -2.7958872 -0.34462908 310.81
-2.4161663 -2.7981682 -0.2585175 310.81
-2.9040518 -3.3631895 -1.9783671 310.81
-2.4351053 -2.8201013 -0.17375618 310.81
-3.0985184 -3.5884018 -1.9803032 310.81
-3.328836 -3.8551333 -1.988925 310.81
-3.5865698 -4.1536155 -1.9973977 310.81
-3.8809042 -4.4944844 -2.0064933 310.81
-4.2386723 -4.9088168 -2.023761 310.81
-4.9869308 -5.7753768 -2.1880093 310.81
-5.4954929 -6.3643436 -2.2012615 310.81
-6.136868 -7.1071219 -2.2248969 310.81
-6.8747206 -7.9616308 -2.2358823 310.81
-7.8187842 -9.0549536 -2.2540417 310.81
-9.0868587 -10.460608 -2.2764962 310.98001
-10.954305 -12.610373 -2.3475718 310.98001
-14.196974 -16.343269 -2.5316205 310.98001
-2.4250934 -2.7917185 -0.34500065 310.98001
-2.424458 -2.790987 -0.2585175 310.98001
-2.915216 -3.3559375 -1.9791805 310.98001
-3.1067312 -3.576406 -1.9787614 310.98001
-41.546566 -47.827568 -1.470868 310.98001
-3.343925 -3.8494587 -1.9911073 310.98001
-3.5976455 -4.1415367 -1.9967136 310.98001
-3.8929799 -4.4815197 -2.0058529 310.98001
-4.24195 -4.8832469 -2.0183992 310.98001
-5.0015235 -5.7576523 -2.1869068 310.98001
-5.5143518 -6.3480101 -2.2012615 310.98001
-6.1592045 -7.0903516 -2.225358 310.98001
-6.8995957 -7.9426751 -2.2362981 310.98001
-7.8430386 -9.0287476 -2.2533009 310.98001
-9.1043491 -10.421816 -2.2735782 311.14001
-11.010325 -12.6036 -2.3520255 311.14001
-2.4073033 -2.7556577 -0.42789918 311.14001
-2.4315698 -2.7834358 -0.34481487 311.14001
-2.4374928 -2.790216 -0.25907555 311.14001
-2.9233742 -3.3464077 -1.9783671 311.14001
-2.4329062 -2.7849653 -0.17245184 311.14001
-3.1167064 -3.5677166 -1.9787614 311.14001
-3.3448563 -3.8288815 -1.9852875 311.14001
-3.6030145 -4.1243973 -1.9932934 311.14001
-3.904233 -4.4692039 -2.0052128 311.14001
-4.251802 -4.8670688 -2.0166121 311.14001
-5.018847 -5.745111 -2.187458 311.14001
-5.5358763 -6.3369579 -2.2027812 311.14001
-6.1802611 -7.0745897 -2.2258191 311.14001
-6.9230361 -7.92485 -2.2367139 311.14001
-7.8682213 -9.0068102 -2.2533009 311.14001
-9.1456537 -10.406616 -2.2761719 311.31
-11.056824 -12.581289 -2.3539739 311.31
-2.4338274 -2.7693927 -0.43115139 311.31
-2.4437613 -2.7806964 -0.3453722 311.31
-2.448395 -2.7859688 -0.25935456 311.31
-2.9308779 -3.3349743 -1.9767401 311.31
-2.4437962 -2.780736 -0.17263818 311.31
-3.1333694 -3.5653844 -1.9826157 311.31
-3.3635812 -3.8273365 -1.9896524 311.31
-3.6127548 -4.1108651 -1.9919254 311.31
-3.9149745 -4.4547534 -2.0039322 311.31
-4.2637033 -4.8515635 -2.0154204 311.31
-5.035871 -5.7301941 -2.187458 311.31
-5.5546541 -6.3205047 -2.2027812 311.31
-6.203794 -7.059145 -2.2267413 311.31
-6.9478106 -7.9057436 -2.2371297 311.31
-7.9001002 -8.9893303 -2.2547822 311.31
-9.1958055 -10.393968 -2.2800629 311.5
-11.120794 -12.569771 -2.3587058 311.5
-2.4548442 -2.7746966 -0.43324211 311.5
-2.4556081 -2.7755601 -0.34574378 311.5
-2.4589422 -2.7793283 -0.2594941 311.5
-2.9394996 -3.3225 -1.9751132 311.5
-2.4582992 -2.7786019 -0.17301084 311.5
-3.1451755 -3.5549743 -1.9826157 311.5
-2.5106535 -2.8377774 -0.087968908 311.5
-3.3762546 -3.8161616 -1.9896524 311.5
-3.6238763 -4.0960469 -1.9905572 311.5
-3.9322364 -4.4445848 -2.0052128 311.5
-4.2785029 -4.835968 -2.0148249 311.5
-5.0522976 -5.7105837 -2.1863556 311.5
-5.5691729 -6.2948046 -2.2002485 311.5
-6.2271686 -7.0385337 -2.2267413 311.5
-6.9739885 -7.8826604 -2.2371297 311.5
-7.933773 -8.9674997 -2.2558932 311.5
-9.2339783 -10.378569 -2.2823327 311.66
-11.163751 -12.547545 -2.3603759 311.66
-2.4691851 -2.7752512 -0.4344036 311.66
-2.464673 -2.7701797 -0.34592956 311.66
-2.4733248 -2.7799039 -0.26019165 311.66
-2.9536242 -3.3197384 -1.9783671 311.66
-2.4687049 -2.7747114 -0.17319718 311.66
-3.1538639 -3.5447986 -1.9818448 311.66
-2.4614186 -2.7665219 -0.085972786 311.66
-3.3782296 -3.7969754 -1.98456 311.66
-28.534626 -32.071613 0 311.66
-3.6253066 -4.0746784 -1.9850849 311.66
-3.9408543 -4.4293399 -2.0032921 311.66
-4.2881837 -4.8197222 -2.0130374 311.66
-5.0720587 -5.7007613 -2.1880093 311.66
-5.5867295 -6.2792282 -2.2002485 311.66
-6.242919 -7.0167551 -2.225358 311.66
-7.0011754 -7.8690009 -2.2387931 311.66
-7.957478 -8.943841 -2.2555227 311.66
-9.2920446 -10.374352 -2.2881689 311.85001
-11.22512 -12.532585 -2.3645511 311.85001
-2.475724 -2.7640882 -0.43393901 311.85001
-2.4751744 -2.7634747 -0.34611535 311.85001
-2.4851918 -2.7746589 -0.26047066 311.85001
-2.9633977 -3.3085647 -1.9775536 311.85001
-2.4805584 -2.769486 -0.17338352 311.85001
-3.1643703 -3.5329459 -1.981074 311.85001
-3.3883164 -3.7829764 -1.9831051 311.85001
-28.827633 -32.185383 0 311.85001
-3.6425605 -4.066834 -1.9871371 311.85001
-3.9542568 -4.4148359 -2.0026519 311.85001
-4.3015957 -4.8026314 -2.0118461 311.85001
-5.0870872 -5.6796145 -2.1863556 311.85001
-5.6101031 -6.2635498 -2.2012615 311.85001
-6.2674513 -6.9974637 -2.2258191 311.85001
-7.0285368 -7.847198 -2.2392089 311.85001
-7.987093 -8.9174032 -2.2555227 311.85001
-9.3359957 -10.361398 -2.2914114 312.01999
-11.272861 -12.510995 -2.3667777 312.01999
-2.4865737 -2.7596819 -0.4344036 312.01999
-2.4900279 -2.7635155 -0.34704426 312.01999
-2.4934134 -2.7672729 -0.26047066 312.01999
-2.9695323 -3.2956855 -1.9751132 312.01999
-2.4901021 -2.763598 -0.17347668 312.01999
-3.172368 -3.5207994 -1.9795322 312.01999
-2.4948134 -2.768827 -0.086529844 312.01999
-3.4082553 -3.7825947 -1.9881974 312.01999
-3.653353 -4.0546122 -1.9864529 312.01999
-28.822859 -31.988565 0.99968892 312.01999
-3.9584601 -4.3932304 -1.9981703 312.01999
-4.3209381 -4.7955208 -2.0142291 312.01999
-5.1052032 -5.6659241 -2.1869068 312.01999
-5.6299577 -6.2483139 -2.2017682 312.01999
-6.290791 -6.9817286 -2.2267413 312.01999
-7.0530982 -7.8277626 -2.2396247 312.01999
-8.0187788 -8.8995066 -2.257004 312.01999
-9.3759756 -10.343887 -2.2936811 312.19
-2.5059288 -2.7646239 -0.52440423 312.19
-2.5014212 -2.7596512 -0.43556511 312.19
-2.5035658 -2.762017 -0.34778741 312.19
-2.5083127 -2.7672539 -0.26116824 312.19
-2.9829788 -3.2909214 -1.9775536 312.19
-2.5049994 -2.7635987 -0.17394252 312.19
-3.1803217 -3.5086367 -1.9779906 312.19
-2.5070462 -2.7658567 -0.08666911 312.19
-3.4069517 -3.7586622 -1.9809227 312.19
-3.6653671 -4.0437546 -1.9864529 312.19
-27.561396 -30.406647 0.95280313 312.19
-3.9727502 -4.3828702 -1.9988105 312.19
-4.3248901 -4.7713623 -2.0094631 312.19
-5.1232829 -5.6521759 -2.187458 312.19
-5.6471729 -6.2301488 -2.2012615 312.19
-6.3114786 -6.9630327 -2.2267413 312.19
-7.0762925 -7.8068013 -2.2396247 312.19
-8.043829 -8.8742189 -2.2566338 312.19
-9.410614 -10.320398 -2.2946539 312.35999
-2.515455 -2.7586401 -0.52468258 312.35999
-2.5095983 -2.7522171 -0.43556511 312.35999
-2.5104082 -2.7531052 -0.34760162 312.35999
-2.5205452 -2.7642221 -0.26158679 312.35999
-2.9878058 -3.2766559 -1.9742997 312.35999
-2.511842 -2.7546778 -0.17384934 312.35999
-3.1894746 -3.4978213 -1.9772197 312.35999
-2.5165889 -2.7598834 -0.086715527 312.35999
-3.4293861 -3.7609267 -1.9874699 312.35999
-29.331282 -32.166924 0 312.35999
-3.6735501 -4.0286956 -1.9844009 312.35999
-27.960003 -30.663074 0.96343368 312.35999
-3.9870136 -4.3724632 -1.9994507 312.35999
-4.3351688 -4.7542772 -2.0076759 312.35999
-5.1374402 -5.634109 -2.1863556 312.35999
-5.6708474 -6.2190843 -2.2032876 312.35999
-6.3294878 -6.9413996 -2.2258191 312.35999
-7.0954704 -7.7814345 -2.2383773 312.35999
-8.0701237 -8.8503141 -2.2566338 312.35999
-9.4527359 -10.308624 -2.2978961 312.51999
-2.5311799 -2.7603631 -0.52635264 312.51999
-2.5226443 -2.7510548 -0.43649432 312.51999
-2.5234699 -2.751955 -0.34834474 312.51999
-2.5309513 -2.7601137 -0.26186579 312.51999
-2.9944746 -3.2656064 -1.9726727 312.51999
-2.5235755 -2.7520702 -0.17412885 312.51999
-3.19923 -3.4889009 -1.9772197 312.51999
-2.5256374 -2.7543187 -0.086761951 312.51999
-3.4360979 -3.747216 -1.9852875 312.51999
-29.093884 -31.728161 0 312.51999
-3.6847861 -4.0184212 -1.9844009 312.51999
-3.9928052 -4.3543301 -1.9962496 312.51999
-4.3445573 -4.7379308 -2.0058885 312.51999
-5.151854 -5.6183233 -2.1858041 312.51999
-5.6842694 -6.198946 -2.2017682 312.51999
-6.3475318 -6.9222631 -2.225358 312.51999
-7.1237836 -7.7687993 -2.2404563 312.51999
-8.0961351 -8.8291922 -2.257004 312.51999
-9.4957819 -10.29048 -2.3004901 312.70001
-2.5438688 -2.7567642 -0.52718771 312.70001
-2.5366631 -2.7489555 -0.43742353 312.70001
-2.5375047 -2.7498674 -0.34908789 312.70001
-2.5382569 -2.7506826 -0.26172629 312.70001
-3.004719 -3.2561827 -1.9726727 312.70001
-2.5362735 -2.7485332 -0.17440835 312.70001
-3.212678 -3.4815457 -1.9787614 312.70001
-2.5383458 -2.7507789 -0.086901218 312.70001
-3.4415362 -3.729557 -1.9816501 312.70001
-29.257164 -31.705685 0 312.70001
-3.697392 -4.0068254 -1.9844009 312.70001
-4.0051804 -4.3403721 -1.9956093 312.70001
-4.3594203 -4.7242589 -2.0058885 312.70001
-5.170783 -5.6035237 -2.1863556 312.70001
-5.7037163 -6.1810579 -2.2017682 312.70001
-6.3758464 -6.9094386 -2.2276635 312.70001
-7.1521344 -7.7506943 -2.2417037 312.70001
-8.1291647 -8.8094912 -2.2584853 312.70001
-9.5262718 -10.26226 -2.3004901 312.87
-2.5547318 -2.7521074 -0.52774441 312.87
-2.5475113 -2.7443287 -0.43788815 312.87
-2.5456526 -2.7423265 -0.34908789 312.87
-2.5504792 -2.7475262 -0.26214483 312.87
-3.0168531 -3.2499313 -1.9742997 312.87
-2.5484948 -2.7453885 -0.17468785 312.87
-3.2217381 -3.4706457 -1.9779906 312.87
-2.549217 -2.7461662 -0.086994059 312.87
-3.4487844 -3.7152331 -1.9794677 312.87
-29.435471 -31.709618 0 312.87
-3.7054284 -3.9917052 -1.9823488 312.87
-4.0167518 -4.3270807 -1.9949691 312.87
-4.3734183 -4.7113032 -2.0058885 312.87
-5.1782303 -5.5782938 -2.1824965 312.87
-5.7246633 -6.1669436 -2.2027812 312.87
-6.3976431 -6.8919168 -2.2281246 312.87
-7.173769 -7.7280054 -2.2412879 312.87
-8.1552668 -8.7853327 -2.2584853 312.87
-9.5638542 -10.23805 -2.3017871 313.04999
-2.5647173 -2.7455151 -0.52802277 313.04999
-2.5561202 -2.7363119 -0.43788815 313.04999
-2.5569739 -2.737226 -0.34945947 313.04999
-2.5645461 -2.7453318 -0.26270288 313.04999
-3.0220592 -3.2350969 -1.9710457 313.04999
-2.5598347 -2.7402885 -0.17487419 313.04999
-3.2326255 -3.4605072 -1.9779906 313.04999
-2.5605614 -2.7410665 -0.087086901 313.04999
-3.4604392 -3.7043803 -1.9794677 313.04999
-29.958178 -32.070057 0 313.04999
-3.7166674 -3.9786711 -1.9816647 313.04999
-27.708933 -29.662254 0.94240469 313.04999
-4.0238585 -4.3075175 -1.9917679 313.04999
-4.385591 -4.6947503 -2.0046971 313.04999
-5.7466502 -6.1517563 -2.203794 313.04999
-6.4205914 -6.8732061 -2.2285857 313.04999
-7.2006826 -7.7082896 -2.2421198 313.04999
-8.182827 -8.7596693 -2.2584853 313.04999
-9.6036491 -10.219696 -2.3040569 313.22
-2.576921 -2.7422233 -0.52885777 313.22
-2.5710294 -2.7359538 -0.43904963 313.22
-2.5678115 -2.7325296 -0.34983101 313.22
-2.5740466 -2.7391646 -0.26284239 313.22
-3.034147 -3.2287791 -1.9726727 313.22
-2.5720584 -2.7370489 -0.17515369 313.22
-3.2403512 -3.4482107 -1.9764489 313.22
-2.5714216 -2.736371 -0.087179743 313.22
-3.471415 -3.6940966 -1.9794677 313.22
-30.179203 -32.115116 0 313.22
-3.729743 -3.9689956 -1.9823488 313.22
-4.037919 -4.2969403 -1.9924082 313.22
-4.3968868 -4.6789346 -2.0035055 313.22
-4.8685908 -5.1808972 -2.0386138 313.22
-5.7648778 -6.1346784 -2.203794 313.22
-6.4409566 -6.854126 -2.2285857 313.22
-7.227541 -7.6911674 -2.2433672 313.22
-8.2114725 -8.7382154 -2.2592258 313.22
-9.6420631 -10.199761 -2.3060021 313.39001
-2.5877669 -2.7374437 -0.52941447 313.39001
-2.5805004 -2.7297568 -0.43928194 313.39001
-2.5772758 -2.7263458 -0.3500168 313.39001
-2.5862741 -2.7358646 -0.26326093 313.39001
-3.0412033 -3.2171068 -1.9710457 313.39001
-2.5856578 -2.7352126 -0.17552635 313.39001
-3.2493002 -3.4372401 -1.9756781 313.39001
-2.5850234 -2.7345414 -0.087365434 313.39001
-3.4810805 -3.6824267 -1.9787402 313.39001
-2.6104505 -2.7614393 0 313.39001
-3.7389207 -3.9551804 -1.9809806 313.39001
-4.0480471 -4.282187 -1.9911276 313.39001
-4.4081268 -4.6630936 -2.0023141 313.39001
-4.8918653 -5.1748114 -2.0419216 313.39001
-5.7843833 -6.1189528 -2.2043006 313.39001
-6.4612646 -6.8349848 -2.2285857 313.39001
-7.2476416 -7.6668458 -2.2425356 313.39001
-8.2400637 -8.71667 -2.2599664 313.39001
-9.6777248 -10.176828 -2.3072991 313.56
-2.601337 -2.7354944 -0.53052789 313.56
-2.5926952 -2.7264068 -0.43997884 313.56
-2.5935874 -2.7273452 -0.35113153 313.56
-2.6012547 -2.7354078 -0.26395848 313.56
-3.0482171 -3.2054212 -1.9694189 313.56
-2.5910084 -2.7246332 -0.17534001 313.56
-3.2569408 -3.4249096 -1.9741364 313.56
-2.5945034 -2.7283084 -0.087411851 313.56
-3.4855721 -3.6653316 -1.9751028 313.56
-2.5745292 -2.707304 0 313.56
-3.7480493 -3.9413455 -1.9796126 313.56
-4.0594292 -4.268784 -1.9904875 313.56
-4.4245744 -4.652761 -2.0035055 313.56
-4.907198 -5.160274 -2.0419216 313.56
-5.8025131 -6.1017632 -2.2043006 313.56
-6.4815159 -6.815784 -2.2285857 313.56
-7.2703576 -7.645308 -2.2425356 313.56
-8.2726622 -8.6993046 -2.2618179 313.56
-9.718791 -10.159478 -2.3098931 313.73001
-2.609442 -2.7277641 -0.53052789 313.73001
-2.5994 -2.7172668 -0.43974653 313.73001
-2.6016681 -2.7196379 -0.35113153 313.73001
-2.606601 -2.7247944 -0.26367947 313.73001
-3.0615034 -3.2003238 -1.9718592 313.73001
-2.6073673 -2.7255955 -0.17589901 313.73001
-3.2670884 -3.415231 -1.9741364 313.73001
-2.6053514 -2.7234881 -0.087504692 313.73001
-3.4977198 -3.6563199 -1.9758303 313.73001
-2.6074359 -2.7256672 0 313.73001
-3.759727 -3.9302075 -1.9796126 313.73001
-4.0642185 -4.2485061 -1.9866461 313.73001
-29.348074 -30.678829 1.9798888 313.73001
-4.4344006 -4.6354737 -2.0017183 313.73001
-4.9251451 -5.1484699 -2.0430241 313.73001
-5.8205919 -6.0845199 -2.2043006 313.73001
-6.5030556 -6.7979293 -2.2290468 313.73001
-7.3011231 -7.6321845 -2.2450304 313.73001
-8.2943611 -8.6704597 -2.2607071 313.73001
-9.756135 -10.134583 -2.3111901 313.91
-2.6248662 -2.726687 -0.5319196 313.91
-2.6134343 -2.7148116 -0.44067574 313.91
-2.6143425 -2.715755 -0.35168886 313.91
-2.620683 -2.7223415 -0.26423752 313.91
-2.6159172 -2.7173908 -0.17589901 313.91
-2.6180546 -2.7196112 -0.087643959 313.91
-2.6090508 -2.710258 0 313.91
-3.7720554 -3.9183767 -1.9796126 313.91
-26.263746 -27.282539 0.8792249 313.91
-4.0801735 -4.2384467 -1.9879265 313.91
-4.4462934 -4.6187687 -2.0005269 313.91
-4.937295 -5.1288166 -2.0413702 313.91
-5.8356528 -6.0620227 -2.2027812 313.91
-6.5230303 -6.7760639 -2.2285857 313.91
-7.3277779 -7.6120286 -2.245862 313.91
-8.3174706 -8.6401119 -2.2595961 313.91
-9.792634 -10.115808 -2.3131356 314.07001
-2.633848 -2.7207694 -0.53219795 314.07001
-2.6265318 -2.713212 -0.44160494 314.07001
-2.623301 -2.7098744 -0.35187465 314.07001
-2.6282749 -2.7150126 -0.26423752 314.07001
-2.5835543 -2.6688159 -1.6537912 314.07001
-2.6262746 -2.7129459 -0.17608535 314.07001
-2.5864522 -2.6718094 -1.5532545 314.07001
-2.6270297 -2.713726 -0.087690383 314.07001
-2.5721354 -2.6570203 -1.4440439 314.07001
-2.6346929 -2.7216423 0 314.07001
-26.483074 -27.357059 0.88400632 314.07001
-2.5856655 -2.6709969 -1.256139 314.07001
-30.392527 -31.395533 2.0377455 314.07001
-2.5954771 -2.6811323 -1.0700243 314.07001
-5.8458295 -6.0387521 -2.2002485 314.07001
-6.5459876 -6.7620163 -2.2299693 314.07001
-7.3476453 -7.5901303 -2.2454462 314.07001
-8.3579702 -8.6337967 -2.2640398 314.07001
-9.8367596 -10.097715 -2.3160536 314.25
-2.6437645 -2.7139001 -0.53247631 314.25
-2.637815 -2.707793 -0.44206956 314.25
-2.6373596 -2.7073255 -0.35261777 314.25
-2.647929 -2.7181752 -0.26535362 314.25
-2.5970254 -2.6659212 -1.6570451 314.25
-2.6361785 -2.7061131 -0.17617851 314.25
-2.5896821 -2.6583831 -1.5501711 314.25
-2.6397278 -2.7097564 -0.087829649 314.25
-2.57657 -2.6449232 -1.4418614 314.25
-2.6460214 -2.716217 0 314.25
-2.5874259 -2.6560669 -1.3496115 314.25
-26.405649 -27.106157 0.87857497 314.25
-2.5900776 -2.6587889 -1.2542183 314.25
-2.5858555 -2.6544549 -1.1563498 314.25
-2.5958383 -2.6647024 -1.0667166 314.25
-2.5962148 -2.6650889 -0.9740051 314.25
-2.6018927 -2.6709175 -0.88350308 314.25
-2.5977552 -2.6666701 -0.79131192 314.25
-2.6030142 -2.6720688 -0.70283735 314.25
-2.6148143 -2.6682966 -0.61378825 314.42001
-2.6365569 -2.690484 -0.52941447 314.42001
-2.6486182 -2.7027919 -0.44253415 314.42001
-2.6467745 -2.7009106 -0.35280356 314.42001
-2.6531894 -2.7074566 -0.26507461 314.42001
-2.604924 -2.6582041 -1.6570451 314.42001
-2.6497893 -2.7039871 -0.17655119 314.42001
-2.59885 -2.6520057 -1.5509419 314.42001
-2.6533539 -2.7076244 -0.088015333 314.42001
-2.5870142 -2.6399279 -1.4433165 314.42001
-2.6554687 -2.7097826 0 314.42001
-2.6005569 -2.6537476 -1.3523476 314.42001
-26.424383 -26.964855 0.87653244 314.42001
-2.6085641 -2.6619186 -1.2593403 314.42001
-2.6084192 -2.6617706 -1.162903 314.42001
-2.5996964 -2.6528695 -1.0650628 314.42001
-2.6014023 -2.6546104 -0.97299206 314.42001
-2.5948229 -2.6478961 -0.87843078 314.42001
-2.5892251 -2.6421838 -0.786322 314.42001
-2.6047084 -2.6422555 -0.60957313 314.59
-2.6195011 -2.6572614 -0.52440423 314.59
-2.6245513 -2.6623845 -0.43719122 314.59
-2.622623 -2.6604283 -0.34853053 314.59
-2.6458039 -2.6839435 -0.26353997 314.59
-2.6230609 -2.6608727 -1.6635529 314.59
-2.6732285 -2.7117634 -0.17757602 314.59
-2.6157763 -2.6534829 -1.5563378 314.59
-2.6487429 -2.6869247 -0.087597542 314.59
-2.6105301 -2.6481612 -1.4520462 314.59
-2.6606891 -2.699043 0 314.59
-2.6136968 -2.6513734 -1.3550838 314.59
-26.466373 -26.847889 0.87527907 314.59
-2.6177809 -2.6555166 -1.2599804 314.59
-2.6163051 -2.6540196 -1.162903 314.59
-2.6143045 -2.6519899 -1.0678191 314.59
-2.607909 -2.6455023 -0.97248554 314.59
-2.609499 -2.6471152 -0.88073635 314.59
-2.6204004 -2.6581738 -0.79339099 314.59
-2.617445 -2.6551757 -0.70246702 314.59
-2.619946 -2.6410651 -0.61119437 314.76999
-2.6306257 -2.6518312 -0.52496094 314.76999
-2.6175134 -2.638613 -0.43463591 314.76999
-2.6169436 -2.6380386 -0.34667271 314.76999
-2.6314073 -2.6526189 -1.6635529 314.76999
-2.6212337 -2.6423633 -0.17356984 314.76999
-2.6240995 -2.645252 -1.5563378 314.76999
-2.6276 -2.6487808 -0.086622685 314.76999
-2.6096525 -2.6306887 -1.4469538 314.76999
-2.6438017 -2.6651132 0 314.76999
-2.6220133 -2.6431491 -1.3550838 314.76999
-2.6287794 -2.6499698 -1.261261 314.76999
-2.6326976 -2.6539197 -1.1664774 314.76999
-2.6239769 -2.6451287 -1.0683703 314.76999
-2.6257455 -2.6469114 -0.97603106 314.76999
-2.6232846 -2.6444306 -0.88258088 314.76999
-2.6273606 -2.6485395 -0.79297519 314.76999
-2.6257734 -2.6469398 -0.70246702 314.76999
-2.6370676 -2.6435189 -0.61346406 314.92999
-2.6422172 -2.6486812 -0.525796 314.92999
-2.6332891 -2.6397314 -0.43602973 314.92999
-2.6327386 -2.6391795 -0.34778741 314.92999
-2.6377304 -2.6441834 -0.26116824 314.92999
-2.6439662 -2.6504345 -1.6668068 314.92999
-2.6328351 -2.6392763 -0.17384934 314.92999
-2.6392963 -2.6457531 -1.5609629 314.92999
-2.629338 -2.6357706 -0.086437002 314.92999
-2.6367245 -2.6431751 -1.457866 314.92999
-2.6413465 -2.6478083 0 314.92999
-2.6400027 -2.6464612 -1.3605561 314.92999
-27.03191 -27.098043 0.88864845 314.92999
-2.6401837 -2.6466427 -1.2631817 314.92999
-2.6387501 -2.6452057 -1.1658818 314.92999
-2.6327112 -2.6391518 -1.0689217 314.92999
-2.6372261 -2.6436779 -0.97755057 314.92999
-2.6334078 -2.6398504 -0.88350308 314.92999
-2.6402731 -2.6467323 -0.79463845 314.92999
-2.6400952 -2.646554 -0.70431858 314.92999
-2.6481557 -2.6380069 -0.6141125 315.10999
-2.649122 -2.6389694 -0.52551764 315.10999
-2.6471984 -2.6370535 -0.43695894 315.10999
-2.6438384 -2.6337061 -0.34815899 315.10999
-2.6488512 -2.6386998 -0.26144725 315.10999
-2.6522796 -2.6421151 -1.6668068 315.10999
-2.6453598 -2.635222 -0.17412885 315.10999
-2.6580548 -2.6478682 -1.5671297 315.10999
-2.6489379 -2.6387861 -0.086808369 315.10999
-2.6384158 -2.6283045 -1.4542285 315.10999
-2.6496518 -2.6394973 0 315.10999
-2.6509666 -2.6408072 -1.3619242 315.10999
-27.075829 -26.972063 0.88730228 315.10999
-2.6484854 -2.6383355 -1.2631817 315.10999
-2.6497524 -2.6395977 -1.1670732 315.10999
-2.6450753 -2.6349385 -1.0705755 315.10999
-2.6400356 -2.6299179 -0.9755246 315.10999
-2.648582 -2.6384315 -0.88580871 315.10999
-2.6485748 -2.6384246 -0.79463845 315.10999
-2.6497891 -2.6396341 -0.70468885 315.10999
-2.6573734 -2.6315269 -0.61443675 315.28
-2.6667912 -2.6408529 -0.52746606 315.28
-2.6592455 -2.6333807 -0.43765584 315.28
-2.6544709 -2.6286526 -0.34853053 315.28
-2.6623392 -2.6364443 -0.26200533 315.28
-2.6560061 -2.630173 -0.17431518 315.28
-3.3333578 -3.3009362 -1.9594903 315.28
-2.6581764 -2.6323218 -0.086854793 315.28
-2.6588926 -2.6330314 0 315.28
-2.6547842 -2.6289628 -1.3598721 315.28
-27.222511 -26.957733 0.88948405 315.28
-2.6630335 -2.6371317 -1.2663828 315.28
-2.6629992 -2.6370976 -1.1694562 315.28
-2.6583459 -2.6324899 -1.0727806 315.28
-2.6505766 -2.6247959 -0.97653759 315.28
-2.660547 -2.6346695 -0.88719201 315.28
-2.6563916 -2.6305544 -0.79463845 315.28
-2.6631954 -2.6372921 -0.70617008 315.28
-2.6675241 -2.6268654 -0.61508524 315.44
-2.6741555 -2.6333957 -0.52746606 315.44
-2.6637583 -2.6231568 -0.43719122 315.44
-2.664639 -2.6240242 -0.34890211 315.44
-2.6739559 -2.633199 -0.26242384 315.44
-3.1374142 -3.0895934 -1.9604707 315.44
-2.6619172 -2.6213439 -0.17422202 315.44
-3.3517673 -3.3006792 -1.9648862 315.44
-2.6683662 -2.6276946 -0.086947635 315.44
-2.6733603 -2.6326125 0 315.44
-4.1635361 -4.1000748 -1.9744816 315.44
-4.5449052 -4.4756312 -1.990399 315.44
-5.0478191 -4.9708796 -2.0314474 315.44
-2.6360013 -2.595823 -0.87658632 315.44
-2.6748784 -2.6341074 -0.79796505 315.44
-2.6677489 -2.6270866 -0.70542949 315.44
-2.6790419 -2.6207652 -0.61573374 315.63
-2.6913679 -2.632823 -0.52913612 315.63
-2.6767023 -2.6184764 -0.43788815 315.63
-2.6790199 -2.6207435 -0.34964526 315.63
-2.6869519 -2.6285031 -0.26284239 315.63
-3.1515608 -3.0830052 -1.962911 315.63
-2.6777358 -2.6194875 -0.17468785 315.63
-3.3587365 -3.2856746 -1.9625736 315.63
-2.6756358 -2.6174333 -0.086901218 315.63
-3.5863926 -3.5083783 -1.9590983 315.63
-2.6820757 -2.6237328 0 315.63
-4.185236 -4.0941954 -1.978323 315.63
-5.0642753 -4.954113 -2.0314474 315.63
-6.7234755 -6.5772209 -2.2285857 315.63
-7.5263824 -7.3626623 -2.2379615 315.63
-10.179869 -9.8994894 -2.3329141 315.79999
-2.7474434 -2.671772 -0.53859991 315.79999
-2.7300315 -2.6548395 -0.44532177 315.79999
-2.7281849 -2.653044 -0.35503298 315.79999
-2.7233455 -2.6483378 -0.26563266 315.79999
-3.162004 -3.0749147 -1.9637245 315.79999
-2.6940899 -2.6198878 -0.17524685 315.79999
-3.3645015 -3.2718346 -1.9602611 315.79999
-2.6962912 -2.6220286 -0.087319009 315.79999
-3.6128135 -3.5133076 -1.967828 315.79999
-2.6898487 -2.6157634 0 315.79999
-3.8763294 -3.7695656 -1.967984 315.79999
-4.1946487 -4.0791178 -1.9770426 315.79999
-4.566093 -4.440331 -1.9874203 315.79999
-5.083087 -4.9430861 -2.0331011 315.79999
-6.0421176 -5.8757029 -2.2063267 315.79999
-6.7457514 -6.5599566 -2.2295082 315.79999
-7.558012 -7.3498454 -2.2408721 315.79999
-8.668354 -8.4296064 -2.2781115 315.79999
-10.220548 -9.8802147 -2.3355081 315.97
-2.7653263 -2.6732442 -0.54054832 315.97
-2.7564633 -2.6646762 -0.4483417 315.97
-2.7532256 -2.6615462 -0.35726237 315.97
-2.7670524 -2.6749129 -0.26912048 315.97
-3.1724272 -3.0667892 -1.964538 315.97
-2.7535615 -2.661871 -0.17860086 315.97
-3.3848093 -3.272099 -1.9664279 315.97
-2.7586863 -2.6668253 -0.089083031 315.97
-3.6232219 -3.5025728 -1.967828 315.97
-2.7594297 -2.6675441 0 315.97
-3.8861456 -3.7567415 -1.9672998 315.97
-26.928459 -26.031773 0.86956918 315.97
-4.2080956 -4.0679708 -1.9776827 315.97
-4.5792475 -4.426764 -1.9874203 315.97
-5.0949664 -4.9253101 -2.0319986 315.97
-6.0650887 -5.8631287 -2.2083526 315.97
-6.7595887 -6.5345025 -2.2276635 315.97
-7.5994778 -7.3464241 -2.2466938 315.97
-8.7018061 -8.4120455 -2.2803333 315.97
-10.251241 -9.8512144 -2.3358324 316.14001
-2.7718177 -2.6636553 -0.54026997 316.14001
-2.7657897 -2.6578624 -0.44857401 316.14001
-2.7668538 -2.6588848 -0.35800552 316.14001
-2.777854 -2.669456 -0.26939949 316.14001
-3.1775606 -3.053565 -1.9620975 316.14001
-2.7700903 -2.6619952 -0.17915986 316.14001
-3.3945029 -3.2620418 -1.9664279 316.14001
-2.7665868 -2.6586285 -0.089083031 316.14001
-3.6282251 -3.4866436 -1.9649181 316.14001
-2.7658904 -2.6579592 0 316.14001
-3.897275 -3.7451947 -1.9672998 316.14001
-4.2174144 -4.0528417 -1.9764023 316.14001
-4.5841022 -4.40522 -1.9838458 316.14001
-5.1026268 -4.903511 -2.0292423 316.14001
-6.0824585 -5.8451071 -2.2083526 316.14001
-6.7831569 -6.5184627 -2.2290468 316.14001
-7.628294 -7.3306212 -2.2487729 316.14001
-8.730978 -8.390276 -2.2814441 316.14001
-10.298685 -9.8416376 -2.3403718 316.29999
-2.7835407 -2.6600094 -0.54110503 316.29999
-2.7746372 -2.6515009 -0.44880629 316.29999
-2.7757075 -2.6525238 -0.35819131 316.29999
-2.7852976 -2.6616883 -0.26939949 316.29999
-3.1887171 -3.0472043 -1.9637245 316.29999
-2.7789574 -2.6556294 -0.17925303 316.29999
-3.398262 -3.2474496 -1.9633445 316.29999
-2.7797825 -2.6564178 -0.089268714 316.29999
-3.6352537 -3.4739239 -1.9634632 316.29999
-2.7328157 -2.6115355 0 316.29999
-3.9145119 -3.7407889 -1.9707201 316.29999
-4.225976 -4.0384302 -1.9751219 316.29999
-4.5936251 -4.3897638 -1.9826543 316.29999
-5.1149101 -4.8879142 -2.0286911 316.29999
-6.0973587 -5.8267622 -2.2078462 316.29999
-6.8027401 -6.5008397 -2.2295082 316.29999
-7.6501498 -7.3106418 -2.2491887 316.29999
-8.7557945 -8.367219 -2.2818143 316.29999
-10.338422 -9.8142252 -2.3419929 316.48999
-2.7980919 -2.6562185 -0.54221839 316.48999
-2.7877367 -2.6463883 -0.44950321 316.48999
-2.7931538 -2.6515307 -0.35930601 316.48999
-2.8013437 -2.6593053 -0.27009708 316.48999
-3.1961541 -3.0340974 -1.9620975 316.48999
-2.7920954 -2.6505258 -0.17953253 316.48999
-3.4130275 -3.2399745 -1.965657 316.48999
-2.7929265 -2.651315 -0.08940798 316.48999
-3.6427002 -3.4580019 -1.9612807 316.48999
-25.96265 -24.646248 0 316.48999
-3.914628 -3.7161422 -1.9645637 316.48999
-4.2393446 -4.0243945 -1.9751219 316.48999
-4.6081572 -4.3745065 -1.9826543 316.48999
-5.1255136 -4.8656311 -2.0264859 316.48999
-6.1110344 -5.8011823 -2.2058201 316.48999
-6.818615 -6.4728861 -2.2276635 316.48999
-7.6771884 -7.2879267 -2.2500203 316.48999
-8.7863445 -8.3408442 -2.2825551 316.48999
-10.383009 -9.8015738 -2.3458838 316.64999
-2.8141398 -2.6565516 -0.54388845 316.64999
-2.800894 -2.6440475 -0.45043242 316.64999
-2.8034434 -2.6464543 -0.35967758 316.64999
-2.808759 -2.6514721 -0.27009708 316.64999
-3.2006288 -3.0213976 -1.9596572 316.64999
-2.8023918 -2.6454613 -0.17971887 316.64999
-3.419378 -3.2278974 -1.9641154 316.64999
-2.8032274 -2.6462505 -0.089500822 316.64999
-3.6564066 -3.4516528 -1.9634632 316.64999
-26.057552 -24.598364 0 316.64999
-3.9236236 -3.7039058 -1.9638797 316.64999
-4.2478108 -4.0099387 -1.9738413 316.64999
-4.6175785 -4.3589997 -1.9814628 316.64999
-5.1362853 -4.84866 -2.0253832 316.64999
-6.1243963 -5.7814384 -2.204807 316.64999
-6.8409095 -6.4578271 -2.2290468 316.64999
-7.7003551 -7.269145 -2.2508519 316.64999
-8.8181772 -8.3243704 -2.2847769 316.64999
