# .PCD v0.7 - Point Cloud Data file format
VERSION 0.7
FIELDS x y z intensity
SIZE 4 4 4 4
TYPE F F F F
COUNT 1 1 1 1
WIDTH 1173
HEIGHT 1
VIEWPOINT 0 0 0 1 0 0 0
POINTS 1173
DATA ascii
-39.770878 -23.576681 0 329.34
-4.976089 -2.9498887 -2.1054759 329.34
-39.803165 -23.595819 1.0742884 329.34
-5.4112191 -3.2078393 -2.1255767 329.34
-40.270767 -23.87302 2.1831789 329.34
-5.9074202 -3.5019934 -2.142911 329.34
-39.838757 -23.61692 3.2385139 329.34
-6.5290875 -3.8705261 -2.1764326 329.34
-39.891838 -23.648388 4.3265347 329.34
-7.2514954 -4.2987785 -2.2068331 329.34
-40.369751 -23.9317 5.4881206 329.34
-8.1778126 -4.8479109 -2.252564 329.34
-39.886417 -23.645174 6.5166411 329.34
-9.2706652 -5.4957676 -2.290771 329.34
-39.91193 -23.660297 7.6229067 329.34
-10.707018 -6.3472562 -2.3451364 329.34
-11.627754 -6.8492708 -2.2171602 329.5
-13.621184 -8.0234909 -2.2217593 329.5
-16.854073 -9.9278069 -2.2874718 329.5
-17.859838 -10.520248 -1.9338243 329.5
-19.074696 -11.235854 -1.5480356 329.5
-4.0411634 -2.3804271 -2.088186 329.5
-19.171093 -11.292637 -1.0375992 329.5
-4.3060436 -2.5364535 -2.0874507 329.5
-26.413879 -15.558964 -0.71173579 329.5
-4.6198134 -2.7212782 -2.0936818 329.5
-39.762463 -23.421881 0 329.5
-4.987546 -2.9378891 -2.1068442 329.5
-39.808601 -23.449059 1.0726637 329.5
-5.4185233 -3.1917541 -2.1249366 329.5
-40.561054 -23.892288 2.1952906 329.5
-5.9204664 -3.4874213 -2.1441023 329.5
-39.837509 -23.466085 3.233073 329.5
-6.5382142 -3.8513026 -2.1758814 329.5
-39.878792 -23.490404 4.3179889 329.5
-7.2601376 -4.2765479 -2.2058201 329.5
-42.059013 -24.774652 5.7083421 329.5
-8.1929951 -4.8260431 -2.2530251 329.5
-39.880619 -23.491478 6.5049505 329.5
-9.2893467 -5.4718437 -2.2916026 329.5
-39.884319 -23.49366 7.6050735 329.5
-10.726395 -6.3183293 -2.3455067 329.5
-11.633209 -6.8087978 -2.2145662 329.66
-13.645247 -7.9864225 -2.2220378 329.66
-16.902304 -9.8927441 -2.2902594 329.66
-19.066402 -11.159369 -2.0610862 329.66
-19.075005 -11.164404 -1.5455245 329.66
-4.0462184 -2.3682098 -2.0873725 329.66
-19.171518 -11.220892 -1.0359223 329.66
-4.3067389 -2.52069 -2.0843673 329.66
-26.603903 -15.570991 -0.71568161 329.66
-4.6273947 -2.7083666 -2.0936818 329.66
-24.950577 -14.603316 0 329.66
-4.9908648 -2.9211018 -2.1047919 329.66
-39.7911 -23.289322 1.0704354 329.66
-5.4306855 -3.1785245 -2.1262171 329.66
-40.558647 -23.73856 2.1915638 329.66
-5.9268866 -3.4689457 -2.142911 329.66
-39.840897 -23.318466 3.2280505 329.66
-6.5489435 -3.8330293 -2.1758814 329.66
-39.875488 -23.338715 4.3105574 329.66
-7.277061 -4.2591891 -2.2073395 329.66
-42.335476 -24.778521 5.7364507 329.66
-8.2097988 -4.8051109 -2.2539473 329.66
-39.874271 -23.338001 6.4932604 329.66
-9.3096561 -5.4488459 -2.29285 329.66
-39.890156 -23.3473 7.5937247 329.66
-10.752478 -6.2933149 -2.3473582 329.66
-11.647717 -6.7682514 -2.2132692 329.84
-13.661707 -7.9385405 -2.2206459 329.84
-15.025104 -8.7307825 -2.0321727 329.84
-19.066933 -11.079406 -2.0573707 329.84
-19.091009 -11.093397 -1.5439898 329.84
-4.0552177 -2.3564048 -2.088186 329.84
-19.175581 -11.142541 -1.0342453 329.84
-4.3178277 -2.509002 -2.0859089 329.84
-25.006884 -14.530992 -0.67148829 329.84
-4.639102 -2.695688 -2.0951366 329.84
-24.965204 -14.506772 0 329.84
-5.0048919 -2.9082408 -2.1068442 329.84
-39.808746 -23.132053 1.0689499 329.84
-5.4406443 -3.1614478 -2.1262171 329.84
-40.560474 -23.568867 2.1876509 329.84
-5.9394059 -3.451268 -2.1435068 329.84
-39.843231 -23.15209 3.2223306 329.84
-6.5626154 -3.8134024 -2.1764326 329.84
-39.883186 -23.175308 4.3034978 329.84
-7.285387 -4.2333903 -2.2058201 329.84
-42.615784 -24.763165 5.7638621 329.84
-8.2198067 -4.7763624 -2.252564 329.84
-39.870335 -23.167841 6.4807348 329.84
-9.3301115 -5.4215379 -2.2936819 329.84
-39.879696 -23.173279 7.577837 329.84
-10.768797 -6.2575288 -2.3466177 329.84
-11.670632 -6.7326121 -2.2135935 330.01999
-13.684864 -7.8945918 -2.2203677 330.01999
-19.205139 -11.079156 -2.0685177 330.01999
-19.099842 -11.018412 -1.5418971 330.01999
-4.0641832 -2.3445661 -2.0889995 330.01999
-19.179342 -11.064274 -1.0325682 330.01999
-4.3224916 -2.4935803 -2.0843673 330.01999
-4.6459341 -2.6801696 -2.0944092 330.01999
-24.972542 -14.406283 0 330.01999
-5.0156317 -2.8934424 -2.1075282 330.01999
-39.803284 -22.961916 1.0668609 330.01999
-5.4505496 -3.14434 -2.1262171 330.01999
-40.487225 -23.35647 2.1797316 330.01999
-5.9568343 -3.436408 -2.1458898 330.01999
-39.832813 -22.978951 3.2156339 330.01999
-6.574563 -3.7927663 -2.1764326 330.01999
-39.878178 -23.005119 4.2951374 330.01999
-7.3053546 -4.2143488 -2.2078462 330.01999
-42.908451 -24.753241 5.7929001 330.01999
-8.2432003 -4.7553778 -2.2548695 330.01999
-39.879448 -23.005852 6.4704356 330.01999
-9.3470974 -5.3921995 -2.2936819 330.01999
-39.883919 -23.008432 7.5648675 330.01999
-10.788403 -6.2236671 -2.3466177 330.01999
-11.69515 -6.697876 -2.214242 330.20001
-13.714754 -7.8545136 -2.2212026 330.20001
-14.848677 -8.5039177 -2.0010443 330.20001
-19.139626 -10.961367 -2.0577421 330.20001
-19.134363 -10.958353 -1.5418971 330.20001
-4.0699434 -2.3308787 -2.088186 330.20001
-19.210541 -11.00198 -1.0323819 330.20001
-4.3287024 -2.4790714 -2.0835965 330.20001
-25.036964 -14.338804 -0.66986352 330.20001
-4.6527147 -2.6646349 -2.0936818 330.20001
-24.984703 -14.308874 0 330.20001
-5.0263276 -2.8786051 -2.1082122 330.20001
-39.790207 -22.788067 1.0645863 330.20001
-5.4604011 -3.1272011 -2.1262171 330.20001
-40.513592 -23.202353 2.1772163 330.20001
-5.9676008 -3.4176772 -2.1458898 330.20001
-39.814781 -22.802139 3.2083793 330.20001
-6.5897827 -3.774004 -2.1775351 330.20001
-39.888042 -22.844097 4.2884493 330.20001
-7.3202372 -4.1923394 -2.2083526 330.20001
-43.222164 -24.753567 5.8247252 330.20001
-8.2547207 -4.7275233 -2.2539473 330.20001
-39.908558 -22.855846 6.4634771 330.20001
-9.3588982 -5.3598919 -2.2924342 330.20001
-39.877228 -22.837904 7.5499525 330.20001
-10.811313 -6.1916971 -2.3473582 330.20001
-11.725266 -6.6690006 -2.2161875 330.37
-13.734555 -7.8118281 -2.2206459 330.37
-14.842762 -8.4421453 -1.9968628 330.37
-19.199743 -10.920274 -1.5445478 330.37
-4.0736651 -2.3169861 -2.0865591 330.37
-19.265675 -10.957773 -1.0335931 330.37
-4.3376431 -2.4671295 -2.0843673 330.37
-24.36334 -13.857182 -0.65073782 330.37
-4.6573615 -2.6489761 -2.0922267 330.37
-24.992279 -14.214905 0 330.37
-5.0364804 -2.864608 -2.1088963 330.37
-39.807243 -22.641239 1.0632401 330.37
-5.4696555 -3.110986 -2.1262171 330.37
-40.573574 -23.077106 2.1767504 330.37
-5.9777145 -3.3999557 -2.1458898 330.37
-39.844109 -22.662207 3.2053099 330.37
-6.6026225 -3.7553856 -2.1780863 330.37
-39.879486 -22.682327 4.2802744 330.37
-7.3360071 -4.1725144 -2.2093656 330.37
-43.52507 -24.755835 5.8556213 330.37
-8.268712 -4.7030106 -2.2539473 330.37
-39.909058 -22.699148 6.4526215 330.37
-9.3815622 -5.3359685 -2.2940977 330.37
-39.869331 -22.676554 7.535686 330.37
-10.841595 -6.1663938 -2.3499503 330.37
-11.745561 -6.6372027 -2.2165117 330.53
-13.761489 -7.7763667 -2.2214811 330.53
-14.850714 -8.3918676 -1.9947721 330.53
-19.268377 -10.888209 -1.5476171 330.53
-4.0817103 -2.3065 -2.0873725 330.53
-19.381428 -10.952091 -1.0381583 330.53
-4.3461227 -2.4559147 -2.0851381 330.53
-24.433275 -13.806799 -0.65157342 330.53
-4.6696067 -2.6387095 -2.0944092 330.53
-24.979639 -14.11554 0 330.53
-5.0428238 -2.8496079 -2.1082122 330.53
-39.79372 -22.486708 1.0611975 330.53
-5.4799714 -3.096632 -2.1268573 330.53
-5.987186 -3.3832498 -2.1458898 330.53
-39.837757 -22.511591 3.1997294 330.53
-6.6147575 -3.7378788 -2.1786377 330.53
-39.866386 -22.527769 4.2721 330.53
-7.3493152 -4.1529641 -2.2098722 330.53
-39.953556 -22.577028 5.3666267 330.53
-8.2885895 -4.6837311 -2.2557919 330.53
-39.906765 -22.550587 6.4420447 330.53
-9.3964262 -5.3097496 -2.2940977 330.53
-39.886112 -22.538914 7.5269313 330.53
-10.85535 -6.1341605 -2.3492098 330.53
-11.750863 -6.5915804 -2.2135935 330.70999
-13.77376 -7.7263131 -2.2195327 330.70999
-14.946305 -8.3840456 -2.0040641 330.70999
-19.391232 -10.877402 -1.5547323 330.70999
-4.0905294 -2.2945595 -2.088186 330.70999
-19.497631 -10.937087 -1.0425371 330.70999
-4.3554263 -2.4431517 -2.0859089 330.70999
-24.495712 -13.740731 -0.65208405 330.70999
-4.6827478 -2.626761 -2.0965917 330.70999
-24.961067 -14.001769 0 330.70999
-5.0550294 -2.8355904 -2.1095803 330.70999
-39.796158 -22.323431 1.0593871 330.70999
-5.4929776 -3.0812547 -2.1281378 330.70999
-39.788063 -22.31889 2.127465 330.70999
-5.9977851 -3.3644238 -2.1458898 330.70999
-39.803879 -22.327761 3.1913586 330.70999
-6.6247907 -3.7161391 -2.1780863 330.70999
-39.874439 -22.367342 4.2654119 330.70999
-7.3640132 -4.1308017 -2.2103786 330.70999
-39.856236 -22.35713 5.3440938 330.70999
-8.2998686 -4.6557646 -2.2548695 330.70999
-39.865139 -22.362123 6.4239521 330.70999
-9.4130611 -5.2802033 -2.2940977 330.70999
-39.88615 -22.373911 7.5136375 330.70999
-10.87971 -6.1029119 -2.3503206 330.70999
-11.760605 -6.5539365 -2.2119722 330.87
-13.791822 -7.6858912 -2.218976 330.87
-14.865546 -8.284255 -1.990126 330.87
-19.513899 -10.874683 -1.5621265 330.87
-4.0905371 -2.2795699 -2.0849321 330.87
-19.62059 -10.93414 -1.047475 330.87
-4.3638439 -2.4318779 -2.0866799 330.87
-24.575905 -13.695633 -0.65319818 330.87
-4.6884375 -2.612767 -2.0958643 330.87
-24.972116 -13.916433 0 330.87
-5.0612864 -2.8205481 -2.1088963 330.87
-39.788479 -22.173279 1.0575302 330.87
-5.4999056 -3.0649812 -2.1274974 330.87
-39.78043 -22.168793 2.1237385 330.87
-6.0054893 -3.3467321 -2.145294 330.87
-39.808563 -22.184471 3.1867547 330.87
-6.6401806 -3.7004323 -2.1797402 330.87
-39.868908 -22.2181 4.2581663 330.87
-7.3704495 -4.1073956 -2.2088592 330.87
-39.854309 -22.209965 5.3354983 330.87
-8.3179379 -4.6354108 -2.256253 330.87
-39.863419 -22.21504 6.4136534 330.87
-9.4311876 -5.2558012 -2.2949293 330.87
-39.872623 -22.220171 7.4993706 330.87
-10.894994 -6.0715494 -2.3499503 330.87
-11.781137 -6.5169573 -2.2119722 331.04999
-13.821099 -7.645401 -2.219811 331.04999
-14.912357 -8.2490511 -1.9929137 331.04999
-19.643986 -10.866441 -1.5697997 331.04999
-4.1008763 -2.2684767 -2.0865591 331.04999
-19.749247 -10.924666 -1.052506 331.04999
-4.3682327 -2.4163699 -2.0851381 331.04999
-24.643305 -13.631907 -0.65384805 331.04999
-4.6933622 -2.5962214 -2.0944092 331.04999
-24.96146 -13.807901 0 331.04999
-5.0701227 -2.8046336 -2.1088963 331.04999
-39.798458 -22.015265 1.0559518 331.04999
-5.5078492 -3.0467703 -2.1268573 331.04999
-39.792187 -22.011797 2.1206639 331.04999
-6.0226564 -3.3315456 -2.1476769 331.04999
-39.806484 -22.019705 3.1810348 331.04999
-6.6484084 -3.6776922 -2.1786377 331.04999
-39.872295 -22.056108 4.2511067 331.04999
-7.3883958 -4.0870299 -2.2103786 331.04999
-39.864788 -22.051956 5.3276 331.04999
-8.3239441 -4.6045465 -2.2539473 331.04999
-39.861958 -22.05039 6.4022408 331.04999
-9.4476528 -5.2261467 -2.2949293 331.04999
-39.886971 -22.064228 7.4889951 331.04999
-10.914014 -6.037292 -2.3499503 331.04999
-11.793502 -6.4781728 -2.2106752 331.22
-13.841987 -7.603406 -2.2195327 331.22
-15.382485 -8.4496021 -2.0523829 331.22
-19.761827 -10.855175 -1.5766358 331.22
-4.10919 -2.2571788 -2.0873725 331.22
-19.881382 -10.920847 -1.0578165 331.22
-4.3770003 -2.4042871 -2.0859089 331.22
-24.70993 -13.573169 -0.65454441 331.22
-4.7010446 -2.5822847 -2.0944092 331.22
-24.96726 -13.71452 0 331.22
-5.0800691 -2.7904828 -2.1095803 331.22
-39.789997 -21.856653 1.0540022 331.22
-5.5185256 -3.0313272 -2.1274974 331.22
-39.787281 -21.85516 2.1169372 331.22
-6.0291677 -3.3118229 -2.1464853 331.22
-39.805191 -21.864998 3.1757333 331.22
-6.6592913 -3.6579497 -2.1786377 331.22
-39.876472 -21.904154 4.2446041 331.22
-7.4038815 -4.0669532 -2.2113917 331.22
-39.860397 -21.895323 5.3183084 331.22
-8.3443928 -4.5835762 -2.2557919 331.22
-39.86124 -21.895786 6.391664 331.22
-9.4716902 -5.2028012 -2.2970083 331.22
-39.88826 -21.910627 7.4769983 331.22
-10.937047 -6.0077219 -2.3510613 331.22
-11.826531 -6.4507122 -2.2132692 331.39001
-13.867963 -7.564199 -2.2200892 331.39001
-17.245575 -9.406497 -2.2972286 331.39001
-15.651698 -8.5371265 -1.663323 331.39001
-19.900791 -10.85477 -1.5851461 331.39001
-4.1126614 -2.243227 -2.0857456 331.39001
-20.031208 -10.925905 -1.0640587 331.39001
-4.385735 -2.3921733 -2.0866799 331.39001
-24.792221 -13.522772 -0.65565854 331.39001
-4.7070503 -2.5674329 -2.0936818 331.39001
-24.985018 -13.627932 0 331.39001
-5.0866761 -2.7744977 -2.1088963 331.39001
-39.786213 -21.701157 1.0521917 331.39001
-5.5291591 -3.0158472 -2.1281378 331.39001
-39.771271 -21.693007 2.1126516 331.39001
-6.0406437 -3.2948337 -2.1470811 331.39001
-39.805084 -21.711451 3.1705713 331.39001
-6.670115 -3.6381752 -2.1786377 331.39001
-39.867863 -21.745691 4.2368011 331.39001
-7.414217 -4.0440412 -2.210885 331.39001
-39.855431 -21.738911 5.3090162 331.39001
-8.363081 -4.5615935 -2.2571752 331.39001
-39.863438 -21.743279 6.3816433 331.39001
-9.4870853 -5.174675 -2.2970083 331.39001
-39.871662 -21.747765 7.4617586 331.39001
-10.953098 -5.9743032 -2.3506911 331.39001
-11.828882 -6.4091997 -2.210351 331.54999
-13.883808 -7.5226126 -2.2192543 331.54999
-17.294479 -9.3706045 -2.3002484 331.54999
-20.045048 -10.860934 -1.5942144 331.54999
-4.1221223 -2.2334743 -2.0873725 331.54999
-20.172304 -10.929886 -1.0699282 331.54999
-4.3875303 -2.3772793 -2.0843673 331.54999
-24.863289 -13.471584 -0.65654051 331.54999
-4.7158394 -2.5551658 -2.0944092 331.54999
-24.977257 -13.533335 0 331.54999
-5.0944042 -2.7602823 -2.1088963 331.54999
-39.778099 -21.55282 1.0503813 331.54999
-5.537559 -3.0003953 -2.1281378 331.54999
-39.768459 -21.547598 2.1092975 331.54999
-6.0514998 -3.2788618 -2.1476769 331.54999
-39.800655 -21.565041 3.1654093 331.54999
-6.6870103 -3.623198 -2.1808429 331.54999
-39.877659 -21.606764 4.2314134 331.54999
-7.4254813 -4.0233212 -2.210885 331.54999
-39.854851 -21.594408 5.3008857 331.54999
-8.3809204 -4.5410028 -2.2585585 331.54999
-39.85783 -21.596022 6.3710661 331.54999
-9.4946184 -5.1444345 -2.2953451 331.54999
-39.85936 -21.596849 7.4481406 331.54999
-10.980107 -5.9493113 -2.3529129 331.54999
-11.848332 -6.3690042 -2.210027 331.73999
-13.910422 -7.4774685 -2.2195327 331.73999
-15.189084 -8.1648064 -2.0166085 331.73999
-20.210995 -10.864305 -1.6045384 331.73999
-4.1230688 -2.2163322 -2.0841186 331.73999
-20.345695 -10.936713 -1.0771952 331.73999
-4.3953891 -2.3627167 -2.0843673 331.73999
-24.934244 -13.403261 -0.65723687 331.73999
-4.7226458 -2.5386314 -2.0936818 331.73999
-24.98148 -13.428653 0 331.73999
-5.1068406 -2.7451532 -2.1102643 331.73999
-39.782429 -21.384819 1.0486172 331.73999
-5.5474782 -2.9820156 -2.1281378 331.73999
-39.774586 -21.380602 2.1058505 331.73999
-6.0657029 -3.2605841 -2.1488683 331.73999
-39.798141 -21.393265 3.1595497 331.73999
-6.6956015 -3.5991826 -2.1797402 331.73999
-39.864899 -21.42915 4.222496 331.73999
-7.4421906 -4.0005074 -2.2118981 331.73999
-39.852757 -21.422623 5.2911291 331.73999
-8.39079 -4.5104218 -2.2571752 331.73999
-39.859447 -21.42622 6.3599324 331.73999
-9.5150728 -5.1147733 -2.2961767 331.73999
-39.869919 -21.431849 7.4367924 331.73999
-10.99112 -5.9082141 -2.3510613 331.73999
-11.874777 -6.3405404 -2.211648 331.89999
-13.929502 -7.4376612 -2.2192543 331.89999
-15.236358 -8.135457 -2.0198607 331.89999
-25.003807 -13.350789 -2.6444476 331.89999
-20.375011 -10.879243 -1.6151414 331.89999
-4.1276302 -2.2039492 -2.0833051 331.89999
-20.511858 -10.952312 -1.0843691 331.89999
-4.3987141 -2.3486946 -2.0828257 331.89999
-25.026253 -13.362774 -0.65867591 331.89999
-4.73136 -2.5263109 -2.0944092 331.89999
-24.958897 -13.32681 0 331.89999
-5.1144862 -2.7308815 -2.1102643 331.89999
-39.780258 -21.240681 1.0469925 331.89999
-5.5574555 -2.9674048 -2.128778 331.89999
-39.775978 -21.238396 2.1027758 331.89999
-6.0697322 -3.2409351 -2.1470811 331.89999
-39.794369 -21.248213 3.1545272 331.89999
-6.7056265 -3.580471 -2.1797402 331.89999
-39.852562 -21.279285 4.2148786 331.89999
-7.4516263 -3.9787979 -2.2113917 331.89999
-39.854595 -21.280373 5.283463 331.89999
-8.4050694 -4.4878893 -2.2576363 331.89999
-39.86322 -21.284977 6.3510251 331.89999
-9.5327702 -5.0900249 -2.2970083 331.89999
-39.861717 -21.284174 7.4241467 331.89999
-11.007576 -5.8774981 -2.3510613 331.89999
-11.891793 -6.3043551 -2.2113237 332.07001
-13.949759 -7.3953714 -2.218976 332.07001
-15.370999 -8.1488323 -2.0344956 332.07001
-24.990526 -13.248561 -2.6388741 332.07001
-20.572899 -10.906585 -1.6282556 332.07001
-4.1422229 -2.1959717 -2.0873725 332.07001
-25.018848 -13.263576 -1.320547 332.07001
-4.4089246 -2.3373618 -2.0843673 332.07001
-25.049891 -13.280032 -0.65825814 332.07001
-4.743773 -2.5148795 -2.0965917 332.07001
-24.978891 -13.242393 0 332.07001
-5.124227 -2.7165747 -2.1109483 332.07001
-39.783043 -21.090714 1.0454142 332.07001
-5.5628877 -2.9491277 -2.1274974 332.07001
-39.886478 -21.14555 2.1052914 332.07001
-6.0843816 -3.2255943 -2.1488683 332.07001
-39.918934 -21.162756 3.1594102 332.07001
-6.7179189 -3.5614598 -2.1802914 332.07001
-39.864502 -21.133898 4.2094908 332.07001
-7.4668179 -3.9584837 -2.2124047 332.07001
-39.961437 -21.185289 5.2892704 332.07001
-8.4200678 -4.4638429 -2.2580974 332.07001
-39.975193 -21.192581 6.358819 332.07001
-9.5564728 -5.0662999 -2.2990875 332.07001
-39.87064 -21.137152 7.4140954 332.07001
-11.024966 -5.8448124 -2.3510613 332.07001
-11.906954 -6.2672052 -2.2106752 332.23999
-13.975144 -7.355794 -2.2195327 332.23999
-15.416203 -8.1142931 -2.0372832 332.23999
-24.98391 -13.150239 -2.6340437 332.23999
-25.010096 -13.164021 -1.9763404 332.23999
-4.1422529 -2.1802678 -2.0841186 332.23999
-25.015663 -13.166952 -1.318311 332.23999
-4.4158401 -2.32427 -2.0843673 332.23999
-25.036102 -13.177711 -0.65686548 332.23999
-4.7512136 -2.5007935 -2.0965917 332.23999
-24.979137 -13.147727 0 332.23999
-5.1339278 -2.7022343 -2.1116323 332.23999
-39.77644 -20.936262 1.0436038 332.23999
-5.5766435 -2.9352567 -2.1294181 332.23999
-39.975559 -21.041069 2.106689 332.23999
-6.0905466 -3.205749 -2.1476769 332.23999
-40.022156 -21.065594 3.1626191 332.23999
-6.7284565 -3.5415115 -2.1802914 332.23999
-39.861832 -20.981207 4.2026167 332.23999
-7.4751058 -3.9345093 -2.2113917 332.23999
-40.038185 -21.07403 5.2911291 332.23999
-8.4349976 -4.4397469 -2.2585585 332.23999
-40.088722 -21.100632 6.3668909 332.23999
-9.5610752 -5.0324559 -2.2965925 332.23999
-39.852844 -20.976477 7.3991804 332.23999
-11.04226 -5.8120747 -2.3510613 332.23999
-11.926584 -6.2297673 -2.2106752 332.42001
-13.998185 -7.3118534 -2.2195327 332.42001
-15.422251 -8.0557051 -2.0347278 332.42001
-24.469103 -12.781264 -2.5755217 332.42001
-25.021265 -13.069682 -1.9739687 332.42001
-4.1555595 -2.1706274 -2.0873725 332.42001
-25.019718 -13.068874 -1.3163545 332.42001
-4.4231205 -2.3103859 -2.0843673 332.42001
-25.036617 -13.077701 -0.65579778 332.42001
-4.7590466 -2.4858546 -2.0965917 332.42001
-24.983091 -13.049742 0 332.42001
-5.1407261 -2.6852221 -2.1109483 332.42001
-39.779987 -20.778797 1.041979 332.42001
-5.5841575 -2.9168456 -2.128778 332.42001
-40.151257 -20.972727 2.1124651 332.42001
-6.1090488 -3.1910188 -2.1506557 332.42001
-40.178326 -20.986866 3.1697342 332.42001
-6.7412529 -3.5212462 -2.1808429 332.42001
-39.864006 -20.822683 4.1959286 332.42001
-7.4908595 -3.9127979 -2.2124047 332.42001
-40.230965 -21.014362 5.3078547 332.42001
-8.4489031 -4.4132257 -2.2585585 332.42001
-40.228542 -21.013098 6.3785815 332.42001
-9.5803061 -5.0042057 -2.2974241 332.42001
-39.85907 -20.820107 7.3881559 332.42001
-11.058722 -5.7764459 -2.3506911 332.42001
-11.939759 -6.1916275 -2.2097027 332.59
-14.016301 -7.2684646 -2.218976 332.59
-15.4743 -8.0245419 -2.0384448 332.59
-24.466259 -12.687522 -2.5712488 332.59
-4.1522498 -2.1532414 -2.0824916 332.59
-4.4348707 -2.2998009 -2.0866799 332.59
-25.036259 -12.983109 -0.65477651 332.59
-4.7647476 -2.4708657 -2.0958643 332.59
-24.977314 -12.95254 0 332.59
-5.1503391 -2.6708226 -2.1116323 332.59
-39.766914 -20.622017 1.0400293 332.59
-5.5978336 -2.9028809 -2.1306987 332.59
-40.286022 -20.891211 2.1162851 332.59
-6.1151004 -3.1711211 -2.1494641 332.59
-40.180199 -20.836334 3.1649907 332.59
-6.7550845 -3.5029991 -2.1819453 332.59
-39.853134 -20.666727 4.1883116 332.59
-7.5024362 -3.8905549 -2.2124047 332.59
-45.738682 -23.718809 6.0252013 332.59
-8.4636879 -4.3890333 -2.2590196 332.59
-40.237968 -20.866291 6.3702312 332.59
-9.5916386 -4.9739571 -2.2965925 332.59
-39.859352 -20.669952 7.3768077 332.59
-11.072323 -5.7417994 -2.3499503 332.59
-11.953888 -6.1513782 -2.20873 332.76999
-14.035544 -7.2225828 -2.2184193 332.76999
-17.426485 -8.967535 -2.2918856 332.76999
-15.142723 -7.7923284 -1.5888237 332.76999
-24.573751 -12.645462 -1.9325334 332.76999
-4.163868 -2.1426942 -2.0849321 332.76999
-24.612345 -12.665322 -1.2908268 332.76999
-4.4387922 -2.284168 -2.0851381 332.76999
-25.032476 -12.881518 -0.65361595 332.76999
-4.7791128 -2.4592943 -2.0987742 332.76999
-24.978758 -12.853875 0 332.76999
-5.157033 -2.6537693 -2.1109483 332.76999
-39.779945 -20.470453 1.0386831 332.76999
-5.6035562 -2.8835466 -2.1294181 332.76999
-40.559296 -20.8715 2.1271856 332.76999
-6.1182418 -3.1484001 -2.1470811 332.76999
-40.169178 -20.670748 3.1589916 332.76999
-6.7643466 -3.4808805 -2.1813941 332.76999
-39.850578 -20.506798 4.181252 332.76999
-7.5060196 -3.8625395 -2.2098722 332.76999
-45.763512 -23.549549 6.0186968 332.76999
-8.4757042 -4.3615322 -2.2585585 332.76999
-40.227596 -20.700809 6.3582621 332.76999
-9.6176538 -4.9491706 -2.2990875 332.76999
-39.855652 -20.509411 7.3641624 332.76999
-11.088559 -5.7060866 -2.34958 332.76999
-11.979116 -6.1194744 -2.210027 332.94
-14.069259 -7.1872134 -2.2203677 332.94
-17.306189 -8.8407841 -2.2726045 332.94
-24.467052 -12.498877 -2.5632601 332.94
-24.570297 -12.55162 -1.9293245 332.94
-4.1734614 -2.1319928 -2.0865591 332.94
-24.601778 -12.5677 -1.2883112 332.94
-4.4554105 -2.2760253 -2.0897632 332.94
-25.038536 -12.790816 -0.65278035 332.94
-4.7880478 -2.4459512 -2.0995016 332.94
-24.977602 -12.759689 0 332.94
-5.1682315 -2.6401663 -2.1123164 332.94
-39.755039 -20.308672 1.0364548 332.94
-5.6171489 -2.8694937 -2.1313388 332.94
-42.510479 -21.716274 2.2261288 332.94
-6.1292567 -3.1311014 -2.1476769 332.94
-40.177029 -20.524244 3.1548064 332.94
-6.772933 -3.4599204 -2.1808429 332.94
-39.865139 -20.364916 4.1764212 332.94
-7.5295076 -3.8464131 -2.2134178 332.94
-45.769501 -23.38113 6.010334 332.94
-8.4868755 -4.3354797 -2.2580974 332.94
-40.234165 -20.553431 6.3496337 332.94
-9.6322966 -4.9206123 -2.2990875 332.94
-39.853058 -20.358746 7.3524895 332.94
-11.10194 -5.6713729 -2.3488395 332.94
-11.998981 -6.0847974 -2.210351 333.10999
-14.095821 -7.1481252 -2.2212026 333.10999
-17.403212 -8.8253336 -2.2818966 333.10999
-24.466732 -12.407312 -2.5593586 333.10999
-24.587858 -12.468737 -1.9277899 333.10999
-4.1732507 -2.1162951 -2.0833051 333.10999
-24.578377 -12.463929 -1.2851436 333.10999
-4.4555602 -2.2594571 -2.0866799 333.10999
-25.04071 -12.698383 -0.65185195 333.10999
-4.7919607 -2.4300489 -2.0980465 333.10999
-24.985027 -12.670145 0 333.10999
-5.1726899 -2.6231203 -2.1109483 333.10999
-39.759842 -20.162594 1.0350157 333.10999
-5.6239486 -2.8519578 -2.1306987 333.10999
-42.808144 -21.708416 2.2383337 333.10999
-6.1453309 -3.1163559 -2.1500599 333.10999
-40.186146 -20.378777 3.1507604 333.10999
-6.7865982 -3.4415486 -2.1819453 333.10999
-39.85257 -20.209618 4.1688042 333.10999
-7.542613 -3.8249307 -2.2139242 333.10999
-45.813869 -23.232649 6.007082 333.10999
-8.5083799 -4.3146806 -2.2604029 333.10999
-40.234913 -20.403507 6.3401699 333.10999
-9.6503429 -4.8937807 -2.2999191 333.10999
-39.841122 -20.203814 7.3391957 333.10999
-11.11346 -5.6357412 -2.3477285 333.10999
-12.020508 -6.0509439 -2.2109995 333.28
-14.118737 -7.107161 -2.2214811 333.28
-15.287694 -7.6955962 -2.0015087 333.28
-24.464306 -12.314966 -2.5552714 333.28
-24.573065 -12.369713 -1.9237441 333.28
-4.186039 -2.1071894 -2.0865591 333.28
-24.588482 -12.377475 -1.2837461 333.28
-4.4605961 -2.2453973 -2.0859089 333.28
-25.038986 -12.604252 -0.65083069 333.28
-4.7974854 -2.4149826 -2.0973191 333.28
-24.986782 -12.577972 0 333.28
-5.1854863 -2.6102962 -2.1130004 333.28
-39.74091 -20.004978 1.0329732 333.28
-5.6290007 -2.8335547 -2.1294181 333.28
-43.084717 -21.688202 2.2494204 333.28
-6.1511397 -3.0963917 -2.1488683 333.28
-40.168022 -20.219982 3.1446218 333.28
-6.7950625 -3.4205327 -2.1813941 333.28
-39.855438 -20.062632 4.162859 333.28
-7.5504723 -3.8007946 -2.2129111 333.28
-45.806301 -23.058208 5.9970927 333.28
-8.5211439 -4.2894168 -2.2604029 333.28
-40.238667 -20.255543 6.3312626 333.28
-9.6648207 -4.8651261 -2.2999191 333.28
-39.855061 -20.062441 7.3307652 333.28
-11.13891 -5.607161 -2.34958 333.28
-12.029581 -6.0108409 -2.2093785 333.45001
-14.152164 -7.0714355 -2.2234294 333.45001
-15.189625 -7.5898256 -1.9857123 333.45001
-24.470455 -12.227193 -2.5521131 333.45001
-24.56147 -12.272671 -1.9199772 333.45001
-4.1922727 -2.0947599 -2.0865591 333.45001
-24.591143 -12.287498 -1.2819759 333.45001
-4.4672389 -2.2321527 -2.0859089 333.45001
-25.036924 -12.510242 -0.64980942 333.45001
-4.8046298 -2.4007375 -2.0973191 333.45001
-24.986422 -12.485007 0 333.45001
-5.1932082 -2.5948992 -2.1130004 333.45001
-39.753586 -19.863741 1.0317662 333.45001
-5.6407733 -2.8185346 -2.1306987 333.45001
-43.44912 -21.710295 2.2650726 333.45001
-6.1602998 -3.0781274 -2.1488683 333.45001
-40.179653 -20.076633 3.1408551 333.45001
-6.8051815 -3.4003563 -2.1813941 333.45001
-39.863132 -19.918478 4.1574717 333.45001
-7.5669084 -3.7809699 -2.2144306 333.45001
-40.284138 -20.128841 5.2662725 333.45001
-8.5338335 -4.2641149 -2.2604029 333.45001
-40.23835 -20.105965 6.3217988 333.45001
-9.6704636 -4.8320565 -2.2978401 333.45001
-39.856152 -19.914991 7.3200655 333.45001
-11.15374 -5.5732079 -2.3492098 333.45001
-12.045594 -5.9742451 -2.2090542 333.62
-14.157114 -7.0214939 -2.2209244 333.62
-15.304617 -7.5906205 -1.997792 333.62
-24.472731 -12.137723 -2.548583 333.62
-24.570965 -12.186444 -1.9178845 333.62
-4.1935592 -2.0798767 -2.0841186 333.62
-24.552322 -12.177197 -1.2780629 333.62
-4.4688821 -2.2164283 -2.0835965 333.62
-25.030943 -12.414579 -0.64869529 333.62
-4.8167386 -2.3889546 -2.0995016 333.62
-24.980352 -12.389488 0 333.62
-5.2008848 -2.5794792 -2.1130004 333.62
-39.742489 -19.711054 1.0299557 333.62
-5.6491113 -2.8017857 -2.1306987 333.62
-43.767494 -21.707333 2.2783022 333.62
-6.1711159 -3.0606842 -2.1494641 333.62
-40.181847 -19.928963 3.1363907 333.62
-6.8186851 -3.3818586 -2.1824965 333.62
-39.854263 -19.766491 4.1504116 333.62
-7.5746264 -3.7567823 -2.2134178 333.62
-40.286736 -19.980984 5.2588391 333.62
-8.5412178 -4.2361817 -2.2590196 333.62
-40.233955 -19.954805 6.3117785 333.62
-9.6987782 -4.8102965 -2.3011665 333.62
-39.851418 -19.765079 7.308393 333.62
-11.173748 -5.5418363 -2.3499503 333.62
-12.05722 -5.932888 -2.2077572 333.79999
-14.182657 -6.9787326 -2.2214811 333.79999
-14.88636 -7.3249974 -1.9401813 333.79999
-24.473219 -12.042316 -2.5446815 333.79999
-24.576906 -12.093337 -1.9153732 333.79999
-4.2000728 -2.0666919 -2.0841186 333.79999
-24.572531 -12.091184 -1.2771312 333.79999
-4.4824467 -2.2056372 -2.0866799 333.79999
-25.039322 -12.320874 -0.64790612 333.79999
-4.8208771 -2.3721657 -2.0980465 333.79999
-24.979673 -12.291523 0 333.79999
-5.2072763 -2.5622976 -2.1123164 333.79999
-39.734249 -19.551674 1.0281453 333.79999
-5.6561852 -2.7831881 -2.1300585 333.79999
-40.418839 -19.888533 2.1007261 333.79999
-6.1807008 -3.0412819 -2.1494641 333.79999
-40.170864 -19.766516 3.1306705 333.79999
-6.8258257 -3.3587227 -2.1813941 333.79999
-39.851841 -19.609537 4.1437235 333.79999
-7.5846553 -3.7321131 -2.2129111 333.79999
-40.302967 -19.831518 5.252799 333.79999
-8.5579758 -4.2110462 -2.2599418 333.79999
-40.234249 -19.797705 6.3020363 333.79999
-9.7050657 -4.7754846 -2.2990875 333.79999
-39.846024 -19.606674 7.2960715 333.79999
-11.185813 -5.5041022 -2.3488395 333.79999
-12.069165 -5.8995686 -2.2071087 333.95001
-14.186644 -6.9346204 -2.2192543 333.95001
-15.217687 -7.4386077 -1.5802776 333.95001
-24.576218 -12.013183 -1.9128621 333.95001
-4.2087517 -2.0572939 -2.0857456 333.95001
-24.575382 -12.012774 -1.2756406 333.95001
-4.4898634 -2.194705 -2.0874507 333.95001
-25.03377 -12.236839 -0.64693129 333.95001
-4.8287444 -2.3603547 -2.0987742 333.95001
-24.968643 -12.205005 0 333.95001
-5.2190318 -2.5511322 -2.1143684 333.95001
-39.756557 -19.433535 1.0274026 333.95001
-5.6651545 -2.7692029 -2.1306987 333.95001
-39.851536 -19.479961 2.0685837 333.95001
-6.1955028 -3.0284443 -2.1518471 333.95001
-39.887287 -19.497437 3.1045816 333.95001
-6.839777 -3.343374 -2.1830478 333.95001
-39.847584 -19.478027 4.1379642 333.95001
-7.6013532 -3.7156425 -2.2149372 333.95001
-39.88895 -19.498251 5.1921687 333.95001
-8.5654745 -4.1869178 -2.2590196 333.95001
-39.901604 -19.504435 6.2419138 333.95001
-9.7192926 -4.7509193 -2.2995033 333.95001
-39.844025 -19.47629 7.2863445 333.95001
-11.191356 -5.4704833 -2.346988 333.95001
-12.083335 -5.8569312 -2.206136 334.14001
-14.198869 -6.8823543 -2.2175841 334.14001
-15.106532 -7.3223095 -1.9631791 334.14001
-24.470778 -11.861267 -2.5370646 334.14001
-24.5854 -11.916825 -1.9104903 334.14001
-4.2155509 -2.0433259 -2.0857456 334.14001
-24.595308 -11.921628 -1.2746158 334.14001
-4.4888134 -2.1757793 -2.0835965 334.14001
-25.038225 -12.136315 -0.64600283 334.14001
-4.8382215 -2.3451414 -2.0995016 334.14001
-24.983782 -12.109926 0 334.14001
-5.2240806 -2.5321717 -2.1130004 334.14001
-39.741615 -19.263218 1.0253601 334.14001
-5.6743064 -2.7504013 -2.1306987 334.14001
-39.755913 -19.270147 2.0602918 334.14001
-6.2003574 -3.0053842 -2.1500599 334.14001
-39.77219 -19.278036 3.0906303 334.14001
-6.8525567 -3.3215127 -2.1835992 334.14001
-39.852821 -19.31712 4.1318331 334.14001
-7.6118917 -3.6895711 -2.2144306 334.14001
-39.831837 -19.306948 5.1763721 334.14001
-8.5758095 -4.1567931 -2.2580974 334.14001
-39.841309 -19.311539 6.2224293 334.14001
-9.7455559 -4.723783 -2.3019981 334.14001
-39.840908 -19.311344 7.2740231 334.14001
-11.205897 -5.4316268 -2.3462474 334.14001
-12.099644 -5.8231654 -2.206136 334.29999
-14.205541 -6.8366647 -2.2156358 334.29999
-15.458063 -7.4394631 -2.0061548 334.29999
-24.448181 -11.766115 -2.5313053 334.29999
-24.562851 -11.821301 -1.9061654 334.29999
-4.217948 -2.0299611 -2.0841186 334.29999
-24.581699 -11.830373 -1.2721934 334.29999
-4.4965348 -2.164036 -2.0843673 334.29999
-25.039589 -12.05074 -0.64516723 334.29999
-4.8497877 -2.3340452 -2.1016841 334.29999
-24.977856 -12.021029 0 334.29999
-5.2328248 -2.5183885 -2.1136844 334.29999
-39.744808 -19.127884 1.0240602 334.29999
-5.6819649 -2.734545 -2.1306987 334.29999
-39.750164 -19.130463 2.0572174 334.29999
-6.2035646 -2.985574 -2.1482728 334.29999
-39.771935 -19.14094 3.0864449 334.29999
-6.8600731 -3.3015301 -2.1830478 334.29999
-39.8456 -19.176392 4.1255164 334.29999
-7.6273956 -3.6708176 -2.2159503 334.29999
-39.822948 -19.165491 5.1682415 334.29999
-8.5961514 -4.1370482 -2.2604029 334.29999
-39.832619 -19.170145 6.212687 334.29999
-9.7551842 -4.6948528 -2.3011665 334.29999
-39.837772 -19.172626 7.2636476 334.29999
-11.212167 -5.3960514 -2.3443959 334.29999
-12.10363 -5.7783222 -2.203542 334.48001
-14.212649 -6.7851768 -2.2134089 334.48001
-15.447298 -7.3746033 -2.0017412 334.48001
-24.461662 -11.678098 -2.5288901 334.48001
-24.56926 -11.729465 -1.9037937 334.48001
-4.2259531 -2.0174873 -2.0849321 334.48001
-24.575474 -11.732431 -1.2699574 334.48001
-4.4983149 -2.1475139 -2.0820549 334.48001
-25.035824 -11.952205 -0.64409953 334.48001
-4.8520527 -2.3163898 -2.0995016 334.48001
-24.984814 -11.927853 0 334.48001
-5.2390146 -2.501127 -2.1130004 334.48001
-39.737942 -18.971056 1.0223427 334.48001
-5.6922374 -2.7174973 -2.1313388 334.48001
-39.746967 -18.975365 2.0539565 334.48001
-6.2198052 -2.9693606 -2.1506557 334.48001
-39.785061 -18.993549 3.0828176 334.48001
-6.8704109 -3.2799623 -2.1830478 334.48001
-39.860722 -19.029671 4.120872 334.48001
-7.6371441 -3.6460037 -2.2154436 334.48001
-39.825596 -19.012903 5.1608076 334.48001
-8.6108627 -4.1108608 -2.260864 334.48001
-39.840816 -19.020168 6.2046151 334.48001
-9.7751818 -4.6667113 -2.3024142 334.48001
-39.839039 -19.01932 7.2529478 334.48001
-11.209553 -5.3514867 -2.3403225 334.48001
-12.137776 -5.7478709 -2.2064602 334.66
-14.212416 -6.7303214 -2.2100689 334.66
-15.281879 -7.2367682 -1.9773495 334.66
-24.555822 -11.628465 -2.5348351 334.66
-24.943178 -11.811898 -1.9298826 334.66
-4.2339215 -2.0049832 -2.0857456 334.66
-24.967915 -11.823612 -1.2883112 334.66
-4.5083752 -2.1349511 -2.0835965 334.66
-25.038914 -11.857234 -0.64321756 334.66
-4.8626733 -2.3027298 -2.1009564 334.66
-24.98782 -11.833038 0 334.66
-5.2485452 -2.4854603 -2.1136844 334.66
-39.737709 -18.817883 1.0208107 334.66
-5.6990342 -2.6987903 -2.1306987 334.66
-39.739574 -18.818766 2.0505092 334.66
-6.2256522 -2.9481716 -2.1494641 334.66
-39.770603 -18.833458 3.0770977 334.66
-6.8858943 -3.2608306 -2.1847017 334.66
-39.844719 -18.868555 4.1130691 334.66
-7.646812 -3.621165 -2.2149372 334.66
-39.825886 -18.859638 5.153142 334.66
-8.6237345 -4.0837889 -2.260864 334.66
-39.828773 -18.861006 6.1934814 334.66
-9.7844896 -4.6334672 -2.3011665 334.66
-39.848648 -18.870417 7.2438688 334.66
-11.215652 -5.3111973 -2.3381007 334.66
-12.137706 -5.7063966 -2.203542 334.82001
-14.216817 -6.6838655 -2.2078421 334.82001
-15.404498 -7.24224 -1.9905907 334.82001
-24.746786 -11.634404 -2.5511842 334.82001
-24.985094 -11.746442 -1.9305801 334.82001
-4.2378507 -1.9923745 -2.0849321 334.82001
-24.991796 -11.749593 -1.2878454 334.82001
-4.5159893 -2.1231382 -2.0843673 334.82001
-25.041166 -11.772804 -0.6424284 334.82001
-4.8657131 -2.2875564 -2.0995016 334.82001
-24.989996 -11.748747 0 334.82001
-5.2571659 -2.4715936 -2.1143684 334.82001
-39.743061 -18.684723 1.0196037 334.82001
-5.7082629 -2.6836712 -2.1313388 334.82001
-39.748581 -18.687317 2.0482733 334.82001
-6.2355886 -2.931587 -2.1500599 334.82001
-39.767071 -18.696011 3.0727727 334.82001
-6.8932333 -3.2407708 -2.1841505 334.82001
-39.846794 -18.733492 4.1078672 334.82001
-7.6603961 -3.6014433 -2.2159503 334.82001
-39.820869 -18.721304 5.1457081 334.82001
-8.6333437 -4.0588632 -2.2604029 334.82001
-39.831104 -18.726114 6.1856875 334.82001
-9.799161 -4.6069579 -2.3015823 334.82001
-39.836895 -18.728838 7.2321963 334.82001
-11.20376 -5.2673135 -2.332546 334.82001
-12.148418 -5.6649008 -2.202245 335
-14.221589 -6.6316361 -2.205337 335
-15.387567 -7.1753402 -1.9854801 335
-24.94384 -11.631503 -2.567719 335
-4.2391214 -1.9767346 -2.0824916 335
-25.024963 -11.669333 -1.287659 335
-4.5226374 -2.1089404 -2.0843673 335
-25.038162 -11.675487 -0.64140707 335
-4.8711872 -2.2714717 -2.0987742 335
-24.99053 -11.653275 0 335
-5.2632017 -2.4542713 -2.1136844 335
-39.7327 -18.527662 1.0178398 335
-5.7166657 -2.665725 -2.1313388 335
-39.747341 -18.534489 2.0451987 335
-6.2499585 -2.9144034 -2.1518471 335
-39.771362 -18.545691 3.0685873 335
-6.8981533 -3.2166617 -2.1824965 335
-39.847698 -18.581287 4.101922 335
-7.6681657 -3.5757244 -2.2149372 335
-39.821877 -18.569246 5.1382747 335
-8.6460524 -4.0317206 -2.2604029 335
-39.825119 -18.570757 6.1756673 335
-9.8100395 -4.5744967 -2.3007507 335
-39.84903 -18.581909 7.2237659 335
-11.211347 -5.2279367 -2.3306947 335
-12.168756 -5.6304879 -2.2028935 335.17001
-14.221432 -6.5802622 -2.202275 335.17001
-14.79222 -6.8443666 -1.9060329 335.17001
-24.98547 -11.560787 -2.5684619 335.17001
-25.020168 -11.576842 -1.9277899 335.17001
-4.2482839 -1.9656827 -2.0841186 335.17001
-25.015961 -11.574896 -1.285423 335.17001
-4.5389237 -2.100162 -2.0889924 335.17001
-25.049103 -11.590231 -0.64080364 335.17001
-4.8812866 -2.2585733 -2.100229 335.17001
-24.98325 -11.55976 0 335.17001
-5.2704601 -2.4386442 -2.1136844 335.17001
-39.731247 -18.383663 1.0164007 335.17001
-5.7262697 -2.6495473 -2.1319792 335.17001
-39.742325 -18.38879 2.0421243 335.17001
-6.2568455 -2.895045 -2.1512513 335.17001
-39.775513 -18.404146 3.0646808 335.17001
-6.9129014 -3.1986024 -2.1841505 335.17001
-39.835785 -18.432034 4.095048 335.17001
-7.6822534 -3.5545816 -2.2159503 335.17001
-39.822712 -18.425985 5.1313057 335.17001
-8.6597433 -4.0068665 -2.260864 335.17001
-39.827915 -18.428394 6.1675949 335.17001
-9.8271208 -4.5470128 -2.3015823 335.17001
-39.839508 -18.433758 7.2120934 335.17001
-11.208971 -5.1863956 -2.3269916 335.17001
-12.178233 -5.5910645 -2.2015965 335.34
-14.222894 -6.5297742 -2.1994917 335.34
-15.274619 -7.0126243 -1.9655021 335.34
-24.978037 -11.467493 -2.564189 335.34
-25.019957 -11.486739 -1.9251392 335.34
-4.2623997 -1.9568808 -2.088186 335.34
-25.013882 -11.48395 -1.2835598 335.34
-4.5417809 -2.0851455 -2.0874507 335.34
-25.048857 -11.500007 -0.63992161 335.34
-4.8879666 -2.2440803 -2.100229 335.34
-24.986538 -11.471396 0 335.34
-5.2793808 -2.4237797 -2.1143684 335.34
-39.729286 -18.239838 1.0149616 335.34
-5.72894 -2.6301739 -2.1300585 335.34
-39.749504 -18.249119 2.0397019 335.34
-6.2671428 -2.8772645 -2.1518471 335.34
-39.766483 -18.256914 3.059798 335.34
-6.9206142 -3.1772752 -2.1835992 335.34
-39.841434 -18.291325 4.0900321 335.34
-7.6945243 -3.5325797 -2.2164567 335.34
-39.821243 -18.282055 5.124104 335.34
-8.6751308 -3.982779 -2.2617865 335.34
-39.826622 -18.284525 6.1589665 335.34
-9.8387909 -4.5170188 -2.3011665 335.34
-39.818699 -18.280886 7.1984754 335.34
-11.211807 -5.1473746 -2.3243995 335.34
-12.200983 -5.560308 -2.2028935 335.5
-14.235666 -6.4875669 -2.1986566 335.5
-15.118805 -6.8900361 -1.9429688 335.5
-15.413327 -7.0242581 -1.5802776 335.5
-25.019258 -11.401933 -1.9226279 335.5
-4.2595348 -1.9411819 -2.0841186 335.5
-25.01313 -11.39914 -1.2818828 335.5
-4.5442276 -2.0709238 -2.0859089 335.5
-25.044485 -11.413429 -0.63899314 335.5
-4.892519 -2.2296493 -2.0995016 335.5
-24.987537 -11.387476 0 335.5
-5.2895489 -2.4105864 -2.1157367 335.5
-39.723663 -18.103117 1.0135225 335.5
-5.7397108 -2.615737 -2.1313388 335.5
-39.863937 -18.167044 2.0429628 335.5
-6.2699413 -2.8573768 -2.1500599 335.5
-39.884483 -18.176407 3.06496 335.5
-6.9329586 -3.1595314 -2.1847017 335.5
-39.847057 -18.159349 4.0853872 335.5
-7.7008381 -3.509474 -2.2154436 335.5
-39.922756 -18.193848 5.1306086 335.5
-8.6826773 -3.956924 -2.260864 335.5
-39.938801 -18.20116 6.1684303 335.5
-9.8567066 -4.49196 -2.3024142 335.5
-39.837269 -18.154888 7.1926389 335.5
-11.21183 -5.1095252 -2.3214369 335.5
-39.811028 -18.142931 8.2429714 335.5
-12.22462 -5.5273352 -2.2041905 335.67001
-14.23861 -6.4379563 -2.1961515 335.67001
-24.976534 -11.293085 -2.5573149 335.67001
-25.014801 -11.310388 -1.9196981 335.67001
-4.271935 -1.9315461 -2.0873725 335.67001
-25.014074 -11.31006 -1.2802057 335.67001
-4.5520334 -2.058192 -2.0866799 335.67001
-25.049089 -11.325891 -0.63825041 335.67001
-4.9008102 -2.2158906 -2.100229 335.67001
-24.988411 -11.298455 0 335.67001
-5.2983904 -2.3956556 -2.1164207 335.67001
-39.728012 -17.962933 1.0122691 335.67001
-5.7543526 -2.6018178 -2.1338999 335.67001
-39.912205 -18.046215 2.0426834 335.67001
-6.2801313 -2.8395476 -2.1506557 335.67001
-39.94733 -18.062098 3.0656576 335.67001
-6.9423027 -3.138947 -2.1847017 335.67001
-39.833626 -18.010687 4.0785131 335.67001
-7.7147427 -3.488204 -2.2164567 335.67001
-39.889679 -18.036032 5.1194582 335.67001
-8.692606 -3.9303427 -2.2604029 335.67001
-40.044964 -18.106243 6.1765022 335.67001
-9.8824692 -4.4683366 -2.3053248 335.67001
-39.837009 -18.012217 7.1829114 335.67001
-11.209032 -5.0681391 -2.317734 335.67001
-39.855728 -18.020679 8.2411194 335.67001
-12.233763 -5.4878087 -2.2028935 335.84
-14.241386 -6.3883862 -2.1936464 335.84
-15.045239 -6.7489777 -1.9283339 335.84
-15.478358 -6.9432659 -1.5826927 335.84
-25.011843 -11.219786 -1.9169079 335.84
-4.2743134 -1.917367 -2.0857456 335.84
-25.016535 -11.22189 -1.2786219 335.84
-4.5631719 -2.0469427 -2.0889924 335.84
-25.04792 -11.23597 -0.63736844 335.84
-4.9090633 -2.2021024 -2.1009564 335.84
-24.990803 -11.210348 0 335.84
-5.2986159 -2.3768477 -2.1136844 335.84
-39.724579 -17.819611 1.01083 335.84
-5.7603178 -2.5839574 -2.1332595 335.84
-40.100464 -17.988222 2.0495777 335.84
-6.2920127 -2.8224645 -2.1518471 335.84
-40.12999 -18.001469 3.075563 335.84
-6.9533396 -3.1191218 -2.1852529 335.84
-39.839649 -17.871227 4.0736828 335.84
-7.7250586 -3.4652987 -2.2164567 335.84
-39.870518 -17.885075 5.1101661 335.84
-8.7042294 -3.9045341 -2.2604029 335.84
-40.215969 -18.040037 6.1945949 335.84
-9.8796186 -4.4317889 -2.3015823 335.84
-39.838058 -17.870514 7.1735086 335.84
-11.207881 -5.0276194 -2.3144011 335.84
-39.82653 -17.865343 8.2240858 335.84
-12.243731 -5.4461398 -2.2015965 336.01999
-14.246909 -6.3371744 -2.1914196 336.01999
-15.266019 -6.7904854 -1.953887 336.01999
-24.990469 -11.116023 -2.5517414 336.01999
-25.021446 -11.129802 -1.9149547 336.01999
-4.26863 -1.8987314 -2.0800512 336.01999
-25.020634 -11.12944 -1.2770381 336.01999
-4.5645213 -2.0303469 -2.0866799 336.01999
-25.053865 -11.144222 -0.63662565 336.01999
-4.9142551 -2.1859121 -2.100229 336.01999
-24.987522 -11.114712 0 336.01999
-5.306057 -2.3601899 -2.1136844 336.01999
-39.729214 -17.67197 1.0095303 336.01999
-5.7666759 -2.565078 -2.1326194 336.01999
-40.215187 -17.888138 2.0525589 336.01999
-6.3008485 -2.8026836 -2.1518471 336.01999
-40.157177 -17.862335 3.0733306 336.01999
-6.9648609 -3.0980432 -2.1858041 336.01999
-39.842831 -17.722509 4.068295 336.01999
-7.7359071 -3.4410126 -2.2164567 336.01999
-39.933769 -17.76296 5.1110954 336.01999
-8.7200089 -3.8787515 -2.2613251 336.01999
-40.225395 -17.892677 6.1873579 336.01999
-9.8952799 -4.4015245 -2.3019981 336.01999
-39.843513 -17.722813 7.1644297 336.01999
-11.207458 -4.9851952 -2.3110685 336.01999
-39.850136 -17.72576 8.2174206 336.01999
-12.249946 -5.4028697 -2.1996512 336.20001
-14.259499 -6.2891884 -2.1903062 336.20001
-14.852885 -6.5509028 -1.898367 336.20001
-24.979717 -11.017368 -2.547097 336.20001
-25.025255 -11.037453 -1.912583 336.20001
-4.281261 -1.888261 -2.0833051 336.20001
-25.018915 -11.034657 -1.2751747 336.20001
-4.572566 -2.0167418 -2.0874507 336.20001
-25.026552 -11.038025 -0.63504732 336.20001
-4.9176888 -2.1689591 -2.0987742 336.20001
-24.989378 -11.021629 0 336.20001
-5.3186045 -2.3457839 -2.1157367 336.20001
-39.720505 -17.518829 1.0079055 336.20001
-5.7747059 -2.5469489 -2.1326194 336.20001
-42.647499 -18.809788 2.1736758 336.20001
-6.3078756 -2.7821047 -2.1512513 336.20001
-40.145554 -17.706299 3.0681686 336.20001
-6.9728003 -3.0753713 -2.1852529 336.20001
-39.847298 -17.574751 4.0630932 336.20001
-7.7466788 -3.4166925 -2.2164567 336.20001
-39.794899 -17.551643 5.0862389 336.20001
-8.732152 -3.8513377 -2.2613251 336.20001
-40.230671 -17.743839 6.179564 336.20001
-9.9162188 -4.3735738 -2.3036616 336.20001
-39.824963 -17.564901 7.1511359 336.20001
-11.214073 -4.9459953 -2.309217 336.20001
-39.860672 -17.58065 8.2081623 336.20001
-12.25869 -5.3633351 -2.1983542 336.37
-14.272654 -6.2444706 -2.1894712 336.37
-15.289015 -6.6891418 -1.9515641 336.37
-24.983107 -10.930432 -2.5441244 336.37
-25.021338 -10.947159 -1.9097928 336.37
-4.2868447 -1.8755499 -2.0833051 336.37
-25.020432 -10.946762 -1.2735909 336.37
-4.5836015 -2.0053852 -2.0897632 336.37
-25.028051 -10.950096 -0.63425815 336.37
-4.9309297 -2.1573455 -2.1016841 336.37
-24.988989 -10.933006 0 336.37
-5.3238192 -2.3292398 -2.1150525 336.37
-39.72102 -17.37846 1.0066057 336.37
-5.7926531 -2.5343606 -2.1364608 336.37
-43.05088 -18.835318 2.1913776 336.37
-6.3230991 -2.7664378 -2.1536343 336.37
-40.148563 -17.565516 3.0644019 336.37
-6.9783716 -3.053128 -2.1841505 336.37
-39.842709 -17.431702 4.0573339 336.37
-7.7532372 -3.3921416 -2.2154436 336.37
-39.781284 -17.404827 5.0778761 336.37
-8.7435398 -3.825412 -2.2613251 336.37
-40.232334 -17.602167 6.1717706 336.37
-9.9237747 -4.3417802 -2.3024142 336.37
-39.822662 -17.42293 7.1414089 336.37
-11.214293 -4.9063983 -2.3062544 336.37
-39.860439 -17.439459 8.1974239 336.37
-12.27636 -5.3277254 -2.1986785 336.54001
-14.291118 -6.202095 -2.1894712 336.54001
-14.72385 -6.3898931 -1.8769953 336.54001
-24.984373 -10.842781 -2.540966 336.54001
-25.024424 -10.860163 -1.9075606 336.54001
-4.2890387 -1.8613676 -2.0816782 336.54001
-25.023478 -10.859752 -1.2721002 336.54001
-4.5844526 -1.9895723 -2.0874507 336.54001
-25.029249 -10.862257 -0.63346899 336.54001
-4.9355998 -2.141964 -2.1009564 336.54001
-24.984625 -10.84289 0 336.54001
-5.3307066 -2.3134334 -2.1150525 336.54001
-39.722885 -17.239037 1.0053524 336.54001
-5.7966709 -2.5156536 -2.1351802 336.54001
-43.350327 -18.813282 2.2037687 336.54001
-6.326025 -2.7453842 -2.1518471 336.54001
-40.147427 -17.423281 3.0603559 336.54001
-6.9909272 -3.0339401 -2.1852529 336.54001
-39.844933 -17.292004 4.0523176 336.54001
-7.7703671 -3.3722034 -2.2174697 336.54001
-39.796307 -17.270901 5.0732303 336.54001
-8.7548523 -3.7994525 -2.2613251 336.54001
-40.231697 -17.459852 6.1636982 336.54001
-9.9419975 -4.3146529 -2.3036616 336.54001
-39.82711 -17.284269 7.1329784 336.54001
-11.210773 -4.8652792 -2.3025515 336.54001
-39.820057 -17.281208 8.1785383 336.54001
-12.287564 -5.2918611 -2.19803 336.70001
-14.301105 -6.159029 -2.1883578 336.70001
-17.115259 -7.370995 -2.1792195 336.70001
-24.998095 -10.765881 -2.539294 336.70001
-25.038162 -10.783136 -1.906305 336.70001
-4.2958975 -1.8501059 -2.0824916 336.70001
-24.998659 -10.766124 -1.2693052 336.70001
-4.5849061 -1.9745724 -2.0851381 336.70001
-25.022758 -10.776502 -0.63254058 336.70001
-4.9415622 -2.1281729 -2.1009564 336.70001
-24.983578 -10.759628 0 336.70001
-5.3388724 -2.2992816 -2.1157367 336.70001
-39.710266 -17.101944 1.0038204 336.70001
-5.7984524 -2.4972081 -2.1332595 336.70001
-43.720131 -18.828863 2.2198865 336.70001
-6.3301601 -2.7261977 -2.1506557 336.70001
-40.150116 -17.29137 3.0568681 336.70001
-7.0011377 -3.0151663 -2.1858041 336.70001
-39.827225 -17.152313 4.0456295 336.70001
-7.7797542 -3.3504913 -2.2174697 336.70001
-39.79147 -17.136915 5.0664935 336.70001
-8.7636404 -3.7742198 -2.260864 336.70001
-40.227543 -17.324718 6.1556263 336.70001
-9.9593973 -4.2891941 -2.304909 336.70001
-39.826283 -17.151907 7.1242237 336.70001
-11.208069 -4.8269567 -2.2992187 336.70001
-39.839279 -17.157503 8.1726131 336.70001
-12.313204 -5.2571073 -2.1996512 336.88
-14.325849 -6.1164036 -2.1891928 336.88
-24.986008 -10.667746 -2.5346494 336.88
-25.024208 -10.684055 -1.9026775 336.88
-4.3067298 -1.838753 -2.0849321 336.88
-25.012148 -10.678905 -1.2682804 336.88
-4.594481 -1.9616082 -2.0866799 336.88
-25.019712 -10.682136 -0.63161212 336.88
-4.9499369 -2.1133697 -2.1016841 336.88
-24.995186 -10.671664 0 336.88
-5.3477979 -2.2832358 -2.1164207 336.88
-39.715988 -16.956694 1.0026134 336.88
-5.8097544 -2.4804676 -2.1345401 336.88
-40.379929 -17.240162 2.047528 336.88
-6.3439612 -2.7085464 -2.1524429 336.88
-40.151028 -17.142431 3.0528224 336.88
-7.0070395 -2.991647 -2.1847017 336.88
-39.83696 -17.008341 4.0411706 336.88
-7.7884622 -3.3252745 -2.2169633 336.88
-39.806747 -16.995441 5.061615 336.88
-8.7790337 -3.7481978 -2.2617865 336.88
-40.223488 -17.173368 6.146719 336.88
-9.9746227 -4.2586532 -2.3053248 336.88
-39.829147 -17.005007 7.1151452 336.88
-11.212333 -4.7870917 -2.2969968 336.88
-39.840565 -17.00988 8.1618748 336.88
-12.312391 -5.2136245 -2.196733 337.04999
-14.353052 -6.0777326 -2.1905847 337.04999
-14.88258 -6.3019586 -1.8900042 337.04999
-24.999212 -10.585798 -2.5327916 337.04999
-25.042936 -10.604314 -1.901701 337.04999
-4.3121667 -1.8259666 -2.0849321 337.04999
-25.006927 -10.589067 -1.266417 337.04999
-4.5951829 -1.9458085 -2.0843673 337.04999
-25.038408 -10.602396 -0.63128716 337.04999
-4.9596167 -2.1001265 -2.1031389 337.04999
-24.980696 -10.577958 0 337.04999
-5.3562794 -2.2680914 -2.1171048 337.04999
-39.714573 -16.816948 1.0013137 337.04999
-5.8170881 -2.4632187 -2.1345401 337.04999
-44.434071 -18.815399 2.2502589 337.04999
-6.3537278 -2.6904562 -2.1530387 337.04999
-40.155785 -17.003777 3.0493345 337.04999
-7.0194259 -2.9723427 -2.1858041 337.04999
-39.830402 -16.865997 4.0354114 337.04999
-7.8000755 -3.3029053 -2.2174697 337.04999
-39.798462 -16.852472 5.0541816 337.04999
