# .PCD v0.7 - Point Cloud Data file format
VERSION 0.7
FIELDS x y z intensity
SIZE 4 4 4 4
TYPE F F F F
COUNT 1 1 1 1
WIDTH 1204
HEIGHT 1
VIEWPOINT 0 0 0 1 0 0 0
POINTS 1204
DATA ascii
10.697178 -0.39224771 -0.49918801 182.10001
4.6917481 -0.1720386 -1.9610319 182.10001
17.065929 -0.62577921 -0.39648679 182.10001
4.9820447 -0.18268329 -1.9467312 182.10001
17.032553 -0.62455535 0 182.10001
5.2906728 -0.19400015 -1.9269415 182.10001
16.99999 -0.62336135 0.39495489 182.10001
5.6615157 -0.20759836 -1.9142996 182.10001
17.000088 -0.62336493 0.79331577 182.10001
6.0385909 -0.22142509 -1.8855472 182.10001
16.99505 -0.62318021 1.1892084 182.10001
6.4687886 -0.23719972 -1.8561419 182.10001
36.419266 -1.3354338 3.4000306 182.10001
6.5139666 -0.23885632 -1.7064083 182.10001
36.29213 -1.330772 4.2469339 182.10001
7.1063342 -0.26057744 -1.6849271 182.10001
36.266972 -1.3298495 5.1004157 182.10001
7.7886457 -0.28559667 -1.6566404 182.10001
36.282867 -1.3304323 5.9650621 182.10001
8.4338446 -0.30925503 -1.5900862 182.10001
36.243534 -1.32899 6.8332233 182.10001
8.5050888 -0.34011284 -1.3984516 182.28999
9.0774641 -0.36300176 -1.276774 182.28999
10.091113 -0.40353692 -1.1810203 182.28999
10.127889 -0.40500754 -0.94563991 182.28999
10.246769 -0.40976146 -0.71709657 182.28999
4.4381108 -0.17747711 -1.9775536 182.28999
10.737739 -0.42939505 -0.50114453 182.28999
4.6911516 -0.18759604 -1.9610319 182.28999
22.262203 -0.89025068 -0.51727575 182.28999
4.983273 -0.19927777 -1.9474586 182.28999
17.018398 -0.68055445 0 182.28999
5.2918782 -0.21161869 -1.9276255 182.28999
17.045778 -0.68164939 0.39606899 182.28999
5.6589031 -0.22629577 -1.9136593 182.28999
17.02787 -0.68093324 0.79471326 182.28999
6.0378237 -0.24144855 -1.8855472 182.28999
16.988903 -0.67937493 1.1889293 182.28999
6.4718089 -0.25880334 -1.8572445 182.28999
36.38081 -1.4548444 3.3968723 182.28999
6.5170054 -0.26061073 -1.7074213 182.28999
36.251789 -1.449685 4.2427526 182.28999
7.0957079 -0.28375265 -1.6826215 182.28999
36.218822 -1.4483668 5.0942922 182.28999
7.7993841 -0.31189218 -1.6591353 182.28999
36.252621 -1.4497182 5.9608469 182.28999
8.4465199 -0.3377707 -1.5926783 182.28999
36.20554 -1.4478356 6.8269281 182.28999
8.5907974 -0.36907357 -1.4127182 182.46001
9.1020699 -0.3910386 -1.2803925 182.46001
10.105749 -0.43415815 -1.1828787 182.46001
10.116695 -0.4346284 -0.94471097 182.46001
10.245508 -0.44016239 -0.71709657 182.46001
4.4357395 -0.19056602 -1.9767401 182.46001
10.774342 -0.46288189 -0.50291467 182.46001
4.696106 -0.20175175 -1.9633445 182.46001
22.253471 -0.95604253 -0.51713651 182.46001
4.9770761 -0.21382265 -1.9452763 182.46001
17.016304 -0.73104596 0 182.46001
5.2893491 -0.22723839 -1.9269415 182.46001
17.005726 -0.73059154 0.39518699 182.46001
5.6563134 -0.24300373 -1.9130192 182.46001
16.969887 -0.72905183 0.7921046 182.46001
6.0332656 -0.25919816 -1.8843557 182.46001
16.974854 -0.72926515 1.1880922 182.46001
6.4729333 -0.27808693 -1.8577958 182.46001
36.336544 -1.5610725 3.3931565 182.46001
6.5200696 -0.28011197 -1.7084342 182.46001
36.20565 -1.5554491 4.2378745 182.46001
7.102612 -0.30513889 -1.684466 182.46001
36.182709 -1.5544635 5.0898385 182.46001
7.7945156 -0.33486408 -1.6583036 182.46001
36.218582 -1.5560048 5.9559836 182.46001
8.4199533 -0.36173382 -1.5878644 182.46001
36.144142 -1.5528066 6.8161893 182.46001
8.4614515 -0.39015186 -1.3916425 182.64
9.0928831 -0.41926673 -1.2792791 182.64
10.094414 -0.46544662 -1.1817172 182.64
10.107323 -0.46604186 -0.94396782 182.64
10.230124 -0.47170413 -0.71611995 182.64
4.436944 -0.20458449 -1.9775536 182.64
10.824722 -0.49912068 -0.505337 182.64
4.6862311 -0.21607898 -1.9594903 182.64
22.218399 -1.0244755 -0.51639378 182.64
4.9819627 -0.22971494 -1.9474586 182.64
16.989948 -0.78339511 0 182.64
5.2867317 -0.24376765 -1.9262575 182.64
16.973387 -0.78263146 0.39449066 182.64
5.6574149 -0.26085961 -1.9136593 182.64
16.949553 -0.78153241 0.79126608 182.64
6.0305147 -0.27806297 -1.8837599 182.64
16.938597 -0.78102732 1.1857206 182.64
6.4701071 -0.29833227 -1.8572445 182.64
36.311565 -1.674302 3.3912988 182.64
6.5172243 -0.30050483 -1.7079278 182.64
36.190666 -1.6687272 4.2367129 182.64
7.1132827 -0.32798868 -1.6872326 182.64
36.161819 -1.6673971 5.0876117 182.64
7.7875624 -0.35907927 -1.6570562 182.64
36.168171 -1.6676902 5.9485259 182.64
8.4128857 -0.38791248 -1.5867535 182.64
36.129269 -1.6658963 6.8143377 182.64
8.4582863 -0.41515899 -1.3913183 182.81
9.0639048 -0.44488466 -1.2753823 182.81
10.083068 -0.49490833 -1.1805557 182.81
10.105895 -0.49602878 -0.94396782 182.81
10.232664 -0.50225097 -0.71639901 182.81
4.4308429 -0.21747954 -1.9751132 182.81
10.853126 -0.53270519 -0.50673449 182.81
4.6910992 -0.23025376 -1.9618028 182.81
22.211267 -1.0901982 -0.51630092 182.81
4.9849806 -0.24467836 -1.9489136 182.81
16.957586 -0.83233106 0 182.81
5.2859855 -0.25945261 -1.9262575 182.81
16.98497 -0.83367515 0.39481562 182.81
5.6604009 -0.27783009 -1.9149399 182.81
16.967112 -0.83279866 0.79219776 182.81
6.0334768 -0.2961418 -1.8849514 182.81
16.948162 -0.83186847 1.1865577 182.81
6.4691935 -0.31752813 -1.8572445 182.81
36.274616 -1.780471 3.3883262 182.81
6.5182366 -0.31993535 -1.7084342 182.81
36.155792 -1.7746388 4.2332282 182.81
7.1103344 -0.34899735 -1.6867715 182.81
36.127041 -1.7732276 5.0834365 182.81
7.7864628 -0.38218382 -1.6570562 182.81
36.139412 -1.7738347 5.9446349 182.81
8.4274015 -0.41364309 -1.5897158 182.81
36.075089 -1.7706777 6.8050799 182.81
8.4767256 -0.44127935 -1.3945607 182.98
9.1772604 -0.47774765 -1.2915263 182.98
10.07362 -0.52441007 -1.1796265 182.98
10.110345 -0.52632195 -0.94452518 182.98
10.231129 -0.53260964 -0.71639901 182.98
4.4338269 -0.23081511 -1.9767401 182.98
10.909356 -0.56791663 -0.50943637 182.98
4.6922383 -0.24426743 -1.9625736 182.98
22.175987 -1.1544323 -0.51555818 182.98
4.9767909 -0.25908059 -1.9460037 182.98
16.955042 -0.88264149 0 182.98
5.2889457 -0.27533069 -1.9276255 182.98
16.960457 -0.88292342 0.39430499 182.98
5.6557674 -0.29442659 -1.9136593 182.98
16.918678 -0.88074857 0.79005492 182.98
6.0306649 -0.31394291 -1.8843557 182.98
16.91374 -0.88049144 1.1843255 182.98
6.4605432 -0.33632141 -1.8550394 182.98
36.237354 -1.8864355 3.3853536 182.98
6.5191908 -0.33937448 -1.7089407 182.98
36.065067 -1.8774666 4.2232394 182.98
7.0995502 -0.36958671 -1.684466 182.98
36.040527 -1.8761891 5.0720243 182.98
7.7872481 -0.40538669 -1.657472 182.98
36.112309 -1.879926 5.9410682 182.98
8.4065094 -0.43762407 -1.5860128 182.98
36.032383 -1.8757653 6.7980442 182.98
8.4537029 -0.46523541 -1.3909941 183.14999
9.5297832 -0.52445573 -1.3413503 183.14999
10.07797 -0.5546242 -1.1803234 183.14999
10.102774 -0.55598933 -0.94396782 183.14999
10.239464 -0.56351179 -0.71709657 183.14999
4.4367714 -0.24417031 -1.9783671 183.14999
10.987415 -0.60467404 -0.51316303 183.14999
4.693336 -0.2582899 -1.9633445 183.14999
22.174461 -1.2203344 -0.51560462 183.14999
4.9797206 -0.27405059 -1.9474586 183.14999
16.942364 -0.93239462 0 183.14999
5.2881055 -0.29102206 -1.9276255 183.14999
16.911844 -0.93071514 0.39323729 183.14999
5.6548691 -0.31120628 -1.9136593 183.14999
16.906017 -0.93039441 0.78958911 183.14999
6.029707 -0.33183485 -1.8843557 183.14999
16.889139 -0.92946559 1.1827908 183.14999
6.4614363 -0.35559437 -1.8555907 183.14999
36.203762 -1.9924135 3.3827527 183.14999
6.5220189 -0.35892841 -1.7099538 183.14999
36.152557 -1.9895958 4.2341576 183.14999
7.0984225 -0.39064983 -1.684466 183.14999
36.109947 -1.9872507 5.0826015 183.14999
7.7996845 -0.42924261 -1.6603827 183.14999
36.061249 -1.9845706 5.9336109 183.14999
8.3737745 -0.46083671 -1.580088 183.14999
36.022736 -1.9824511 6.7973037 183.14999
8.4384937 -0.48951593 -1.3887243 183.32001
9.4985275 -0.55100834 -1.3371751 183.32001
10.068347 -0.58406353 -1.1793942 183.32001
10.09114 -0.58538574 -0.94303894 183.32001
10.223804 -0.59308159 -0.71611995 183.32001
4.4287314 -0.25691015 -1.9751132 183.32001
11.087291 -0.64317232 -0.51791453 183.32001
4.6870217 -0.27189353 -1.9610319 183.32001
22.148787 -1.2848482 -0.51509392 183.32001
4.9807453 -0.28893238 -1.9481862 183.32001
16.91157 -0.98103791 0 183.32001
5.2928476 -0.30703741 -1.9296776 183.32001
16.950928 -0.98332107 0.39421213 183.32001
5.6539207 -0.3279832 -1.9136593 183.32001
16.899193 -0.98032004 0.78940272 183.32001
6.0077295 -0.34850761 -1.8778024 183.32001
35.955605 -2.0857799 2.5184877 183.32001
6.4622722 -0.37487558 -1.8561419 183.32001
36.15992 -2.0976322 3.3792229 183.32001
6.5209255 -0.37827805 -1.7099538 183.32001
7.1030607 -0.41204762 -1.6858493 183.32001
7.7847052 -0.45158976 -1.657472 183.32001
36.02565 -2.0898433 5.9287472 183.32001
8.3527498 -0.48454192 -1.5763849 183.32001
35.991188 -2.0878441 6.7924895 183.32001
8.4409437 -0.51479155 -1.3893728 183.49001
8.6883135 -0.52987796 -1.2233316 183.49001
10.064588 -0.61381334 -1.1791619 183.49001
10.085383 -0.61508167 -0.94266737 183.49001
10.229966 -0.6238994 -0.71667802 183.49001
4.4352446 -0.27049419 -1.9783671 183.49001
16.908175 -1.0311862 -0.78996176 183.49001
4.6898785 -0.28602365 -1.9625736 183.49001
22.118931 -1.3489769 -0.51449049 183.49001
4.9780068 -0.30359587 -1.9474586 183.49001
16.918566 -1.0318199 0 183.49001
5.2862859 -0.32239702 -1.9276255 183.49001
16.894051 -1.0303248 0.39295876 183.49001
5.6529226 -0.34475726 -1.9136593 183.49001
16.870287 -1.0288755 0.78819156 183.49001
6.0123863 -0.36668003 -1.8795897 183.49001
35.92337 -2.1908743 2.516674 183.49001
6.4668884 -0.39439893 -1.8577958 183.49001
36.12571 -2.2032144 3.3766217 183.49001
6.5217056 -0.39774209 -1.7104603 183.49001
7.0998645 -0.43300253 -1.6853882 183.49001
7.7872367 -0.47492358 -1.6583036 183.49001
35.98777 -2.194802 5.9235592 183.49001
8.3159628 -0.50716925 -1.5697194 183.49001
35.922058 -2.1907942 6.7806401 183.49001
8.504468 -0.54250711 -1.4000728 183.64999
9.4517126 -0.60293263 -1.3310516 183.64999
10.056887 -0.64153719 -1.178465 183.64999
10.095551 -0.64400357 -0.94378203 183.64999
10.242121 -0.65335345 -0.71765459 183.64999
4.4381185 -0.28311127 -1.9799939 183.64999
16.89526 -1.0777627 -0.78949594 183.64999
4.6890612 -0.29911914 -1.9625736 183.64999
16.883125 -1.0769886 -0.39277306 183.64999
4.9771395 -0.31749588 -1.9474586 183.64999
16.891666 -1.0775335 0 183.64999
5.2834892 -0.33703819 -1.9269415 183.64999
16.88512 -1.0771159 0.39281949 183.64999
5.6481562 -0.3603006 -1.9123789 183.64999
16.84741 -1.0747104 0.78725994 183.64999
6.0208654 -0.38407603 -1.8825684 183.64999
16.844545 -1.0745276 1.1802795 183.64999
6.4600058 -0.41208917 -1.8561419 183.64999
36.089603 -2.302186 3.3738351 183.64999
6.5244312 -0.41619891 -1.7114733 183.64999
7.0966854 -0.45270348 -1.6849271 183.64999
7.7878323 -0.49679232 -1.6587194 183.64999
35.946053 -2.2930286 5.9177232 183.64999
8.2988234 -0.52938884 -1.5667571 183.64999
35.890301 -2.2894723 6.775826 183.64999
8.5183754 -0.57176334 -1.4026667 183.84
9.4397812 -0.63360912 -1.3296598 183.84
10.054704 -0.67488348 -1.178465 183.84
10.083425 -0.67681128 -0.94285315 183.84
10.223973 -0.68624502 -0.71653849 183.84
4.4298635 -0.29733762 -1.9767401 183.84
16.881626 -1.1331146 -0.78903008 183.84
4.6880436 -0.31466699 -1.9625736 183.84
22.074369 -1.4816575 -0.51365489 183.84
4.9723415 -0.33374938 -1.9460037 183.84
16.868046 -1.132203 0 183.84
5.2860928 -0.35480875 -1.9283096 183.84
16.907391 -1.1348438 0.39342296 183.84
5.6469302 -0.37902856 -1.9123789 183.84
16.835779 -1.1300373 0.78688723 183.84
6.0195589 -0.40403983 -1.8825684 183.84
35.847607 -2.4061334 2.5123491 183.84
6.46244 -0.43376654 -1.8572445 183.84
36.05793 -2.4202504 3.3716056 183.84
6.523015 -0.43783242 -1.7114733 183.84
7.087378 -0.47571313 -1.6830826 183.84
7.7939496 -0.523139 -1.6603827 183.84
35.920528 -2.4110279 5.9148049 183.84
8.3087883 -0.55769557 -1.5689789 183.84
35.872707 -2.4078181 6.7739744 183.84
8.51861 -0.59717333 -1.4029909 184.00999
9.3884668 -0.65815222 -1.3227011 184.00999
10.050675 -0.70457447 -1.1782327 184.00999
10.223882 -0.71671665 -0.71667802 184.00999
4.4271388 -0.31035218 -1.9759266 184.00999
16.868225 -1.1824998 -0.78856426 184.00999
4.6889305 -0.32870433 -1.9633445 184.00999
22.059902 -1.5464478 -0.51342279 184.00999
4.9750462 -0.34876171 -1.9474586 184.00999
16.842665 -1.1807079 0 184.00999
5.2887664 -0.37075415 -1.9296776 184.00999
16.854084 -1.1815084 0.39226243 184.00999
5.6495609 -0.39604667 -1.9136593 184.00999
16.820395 -1.1791468 0.78632826 184.00999
6.0240469 -0.42229897 -1.8843557 184.00999
35.826378 -2.511508 2.5113726 184.00999
6.4592071 -0.45280463 -1.8566933 184.00999
36.022778 -2.5252762 3.3690047 184.00999
6.5255475 -0.45745525 -1.7124863 184.00999
7.0937009 -0.49728405 -1.6849271 184.00999
7.7865086 -0.54585141 -1.6591353 184.00999
35.885654 -2.5156634 5.9102654 184.00999
8.3168993 -0.58303297 -1.5708303 184.00999
35.820309 -2.5110826 6.7654576 184.00999
8.5344067 -0.62523007 -1.4059091 184.19
9.1591997 -0.67100245 -1.2906914 184.19
10.038507 -0.73542035 -1.1770712 184.19
10.233519 -0.74970692 -0.71751511 184.19
4.4297867 -0.32452589 -1.9775536 184.19
16.852472 -1.2346112 -0.78800523 184.19
4.6860342 -0.34329855 -1.9625736 184.19
16.838326 -1.2335746 -0.3919839 184.19
4.9739261 -0.36438951 -1.9474586 184.19
16.834885 -1.2333225 0 184.19
5.2819524 -0.3869555 -1.9276255 184.19
16.846302 -1.234159 0.39216959 184.19
5.6445093 -0.4135164 -1.9123789 184.19
16.810631 -1.2315457 0.78604877 184.19
6.0188823 -0.44094294 -1.8831642 184.19
16.797855 -1.2306098 1.1777683 184.19
6.4596701 -0.47323501 -1.8572445 184.19
35.984879 -2.6362498 3.3662179 184.19
6.5260077 -0.47809491 -1.7129928 184.19
7.1018081 -0.52027804 -1.6872326 184.19
7.7847552 -0.57031071 -1.6591353 184.19
35.842144 -2.6257932 5.904429 184.19
8.3209076 -0.60958916 -1.5719413 184.19
35.780884 -2.6213052 6.7595325 184.19
8.5285778 -0.6502493 -1.4052607 184.36
10.036281 -0.76520193 -1.1770712 184.36
10.110622 -0.77087003 -0.94601148 184.36
10.241196 -0.78082544 -0.71821266 184.36
4.4306259 -0.33780679 -1.9783671 184.36
16.836782 -1.2836967 -0.78744626 184.36
4.6831546 -0.35706046 -1.9618028 184.36
22.016151 -1.6785902 -0.51263362 184.36
4.9709654 -0.37900421 -1.9467312 184.36
16.81719 -1.2822028 0 184.36
5.2789073 -0.40248278 -1.9269415 184.36
16.832598 -1.2833774 0.39193746 184.36
5.6432576 -0.43026218 -1.9123789 184.36
16.786982 -1.2798996 0.78511709 184.36
6.0175476 -0.45879936 -1.8831642 184.36
16.780205 -1.2793828 1.1767917 184.36
6.4563203 -0.49225298 -1.8566933 184.36
35.947113 -2.7407365 3.3634312 184.36
6.5226312 -0.49730876 -1.7124863 184.36
7.0866499 -0.54031157 -1.6840048 184.36
7.7810783 -0.59325725 -1.6587194 184.36
35.810581 -2.7303269 5.9005384 184.36
8.3190622 -0.63427508 -1.5719413 184.36
35.751389 -2.7258139 6.7554593 184.36
8.5345984 -0.67468512 -1.4065576 184.52
9.0663366 -0.71672058 -1.2781658 184.52
10.028164 -0.79275584 -1.1763743 184.52
10.102474 -0.79863036 -0.94545412 184.52
10.246931 -0.81005013 -0.71877068 184.52
4.427844 -0.35003409 -1.9775536 184.52
16.821182 -1.329764 -0.78688723 184.52
4.6876583 -0.37057322 -1.9641154 184.52
21.983473 -1.7378583 -0.51198369 184.52
4.971745 -0.39303106 -1.9474586 184.52
16.797594 -1.3278993 0 184.52
5.2815099 -0.41751888 -1.9283096 184.52
16.791077 -1.327384 0.39105546 184.52
5.6344786 -0.44542214 -1.9098179 184.52
16.771393 -1.325828 0.78455806 184.52
6.0200496 -0.47590265 -1.8843557 184.52
16.762644 -1.3251363 1.1758151 184.52
6.4530039 -0.51012897 -1.8561419 184.52
35.903587 -2.8382843 3.3600872 184.52
6.5270033 -0.51597881 -1.7140058 184.52
35.76395 -2.8272455 4.195363 184.52
7.0851135 -0.56009907 -1.6840048 184.52
35.726341 -2.8242724 5.0366745 184.52
7.7754908 -0.61467546 -1.6578878 184.52
35.773308 -2.8279853 5.8956747 184.52
8.3133402 -0.65719402 -1.5712007 184.52
35.702492 -2.8223872 6.747683 184.52
8.5325594 -0.70000482 -1.4065576 184.69
9.1273355 -0.7487998 -1.2870729 184.69
10.037646 -0.82348102 -1.1777681 184.69
10.072275 -0.8263219 -0.94285315 184.69
10.246471 -0.84061289 -0.71891022 184.69
4.4249649 -0.36302084 -1.9767401 184.69
16.799244 -1.3781974 -0.78604877 184.69
4.6791811 -0.38387653 -1.9610319 184.69
21.96427 -1.8019325 -0.51165873 184.69
4.9705567 -0.4077808 -1.9474586 184.69
16.791588 -1.3775693 0 184.69
5.2783747 -0.43303391 -1.9276255 184.69
5.6444626 -0.46306753 -1.9136593 184.69
16.75942 -1.3749304 0.78418541 184.69
6.020514 -0.49391848 -1.8849514 184.69
16.736765 -1.3730717 1.1742805 184.69
6.4514623 -0.52927315 -1.8561419 184.69
35.867222 -2.9425201 3.357486 184.69
6.5293002 -0.53565896 -1.7150189 184.69
35.717785 -2.9302607 4.1909494 184.69
7.0717826 -0.58016378 -1.6812382 184.69
35.698067 -2.9286427 5.0338912 184.69
7.7833815 -0.63854283 -1.6599669 184.69
35.74509 -2.9325006 5.8924322 184.69
8.2956829 -0.68057162 -1.5682383 184.69
35.674374 -2.9266992 6.7439799 184.69
8.5283518 -0.72663957 -1.4062333 184.87
9.1604586 -0.7804969 -1.292083 184.87
10.031051 -0.8546738 -1.1773034 184.87
10.263659 -0.8744927 -0.72030532 184.87
4.4274435 -0.37723067 -1.9783671 184.87
16.788858 -1.4304581 -0.78576922 184.87
4.6816297 -0.39888805 -1.9625736 184.87
21.944555 -1.869738 -0.51133382 184.87
4.9692512 -0.4233942 -1.9474586 184.87
16.767248 -1.4286169 0 184.87
5.2788606 -0.44977382 -1.9283096 184.87
16.764725 -1.4284017 0.39063767 184.87
5.6467562 -0.48111951 -1.9149399 184.87
16.731131 -1.4255395 0.78306741 184.87
6.0151277 -0.51250583 -1.8837599 184.87
16.724417 -1.4249674 1.1737224 184.87
6.4535985 -0.54986477 -1.8572445 184.87
35.833992 -3.0531571 3.3552568 184.87
6.5295134 -0.55633295 -1.7155253 184.87
35.682674 -3.0402644 4.1879296 184.87
7.0718646 -0.60254276 -1.6816993 184.87
35.657116 -3.0380867 5.0294375 184.87
7.7696419 -0.66199535 -1.657472 184.87
35.690472 -3.0409288 5.8849745 184.87
8.2993784 -0.70713043 -1.5693492 184.87
35.643463 -3.0369234 6.7399068 184.87
8.5713739 -0.75592816 -1.4136909 185.03999
9.1876955 -0.81028295 -1.2962582 185.03999
10.054195 -0.88670141 -1.1803234 185.03999
10.253503 -0.90427876 -0.96031684 185.03999
10.268969 -0.90564281 -0.7208634 185.03999
4.4226646 -0.39004445 -1.9767401 185.03999
16.770611 -1.4790367 -0.78511709 185.03999
4.6841021 -0.4131012 -1.9641154 185.03999
21.913019 -1.932557 -0.51073033 185.03999
4.9698291 -0.43830007 -1.9481862 185.03999
16.748991 -1.4771301 0 185.03999
5.2737589 -0.46510428 -1.9269415 185.03999
16.748461 -1.4770833 0.39035913 185.03999
5.6434164 -0.49770519 -1.9142996 185.03999
16.728817 -1.475351 0.78316057 185.03999
6.0173845 -0.53068626 -1.8849514 185.03999
16.720116 -1.4745835 1.1737224 185.03999
6.4519386 -0.56901056 -1.8572445 185.03999
35.804939 -3.1577156 3.3533988 185.03999
6.5316882 -0.57604384 -1.7165383 185.03999
35.641834 -3.1433313 4.1842127 185.03999
7.0739226 -0.62386465 -1.6826215 185.03999
35.620323 -3.141434 5.0255408 185.03999
7.7656946 -0.68487358 -1.6570562 185.03999
35.665565 -3.1454241 5.882381 185.03999
8.355979 -0.73693198 -1.5804583 185.03999
35.597095 -3.1393855 6.7328706 185.03999
8.6475706 -0.79003429 -1.4266605 185.22
9.2541361 -0.84544951 -1.3060004 185.22
10.079055 -0.92081338 -1.1835756 185.22
10.203017 -0.93213838 -0.95585799 185.22
10.270047 -0.93826222 -0.72114241 185.22
4.4250565 -0.40426919 -1.9783671 185.22
16.749964 -1.5302616 -0.78437173 185.22
4.677268 -0.42731097 -1.9618028 185.22
21.900866 -2.0008433 -0.51059103 185.22
4.9665723 -0.45374155 -1.9474586 185.22
16.740284 -1.5293772 0 185.22
5.2722716 -0.48166996 -1.9269415 185.22
16.723827 -1.5278738 0.38989493 185.22
5.638051 -0.51508725 -1.9130192 185.22
16.710173 -1.5266263 0.78250837 185.22
6.0175886 -0.54976147 -1.8855472 185.22
16.695532 -1.5252887 1.1723273 185.22
6.4501195 -0.58927709 -1.8572445 185.22
35.769062 -3.2678292 3.3509836 185.22
6.5298467 -0.5965609 -1.7165383 185.22
35.598156 -3.2522151 4.1802635 185.22
7.0661135 -0.64555377 -1.6812382 185.22
35.584637 -3.2509804 5.0219221 185.22
7.7654529 -0.70944476 -1.657472 185.22
35.631924 -3.2553003 5.87849 185.22
8.3379641 -0.76174885 -1.5774958 185.22
35.55574 -3.2483404 6.7269459 185.22
8.5998564 -0.81292576 -1.419203 185.39999
9.1804514 -0.86780816 -1.2959799 185.39999
10.101822 -0.9549033 -1.1865956 185.39999
10.225811 -0.96662372 -0.95827317 185.39999
10.286911 -0.97239941 -0.72253758 185.39999
4.4219456 -0.41799694 -1.9775536 185.39999
16.739107 -1.5823115 -0.78409225 185.39999
4.6814141 -0.44252393 -1.9641154 185.39999
21.88452 -2.068696 -0.51035893 185.39999
4.9614129 -0.46899158 -1.9460037 185.39999
16.717476 -1.5802668 0 185.39999
5.2726035 -0.49840775 -1.9276255 185.39999
16.707001 -1.5792766 0.3896164 185.39999
5.6401777 -0.53315377 -1.9142996 185.39999
16.687395 -1.5774232 0.78166991 185.39999
6.0158319 -0.56866354 -1.8855472 185.39999
16.670795 -1.5758541 1.1709322 185.39999
6.45015 -0.60971874 -1.8577958 185.39999
35.732845 -3.3777483 3.3485684 185.39999
6.5317926 -0.61743617 -1.7175514 185.39999
35.560074 -3.3614168 4.1770115 185.39999
7.0659881 -0.66793257 -1.6816993 185.39999
35.548618 -3.3603337 5.0183039 185.39999
7.7709761 -0.73457354 -1.6591353 185.39999
35.590084 -3.3642535 5.873302 185.39999
8.3296595 -0.78738469 -1.5763849 185.39999
35.527752 -3.3583612 6.7236133 185.39999
8.5934782 -0.83805531 -1.4185545 185.57001
9.1798077 -0.89523548 -1.2962582 185.57001
10.160233 -0.9908489 -1.1937969 185.57001
10.339833 -1.0083637 -0.96923447 185.57001
10.301852 -1.0046598 -0.72379315 185.57001
4.4261413 -0.43164727 -1.9799939 185.57001
16.716444 -1.6302252 -0.78325373 185.57001
4.6745706 -0.45587462 -1.9618028 185.57001
21.856394 -2.1314847 -0.5098483 185.57001
4.9655619 -0.48425278 -1.9481862 185.57001
16.69878 -1.6285026 0 185.57001
5.2729716 -0.5142321 -1.9283096 185.57001
16.696272 -1.628258 0.38947713 185.57001
5.6347995 -0.54951835 -1.9130192 185.57001
16.674686 -1.626153 0.78129721 185.57001
6.0084176 -0.58595443 -1.8837599 185.57001
16.662075 -1.624923 1.1706531 185.57001
6.4483128 -0.62885398 -1.8577958 185.57001
35.686989 -3.4802756 3.3452244 185.57001
6.5318575 -0.63700145 -1.7180579 185.57001
35.530174 -3.4649825 4.1746883 185.57001
7.0678492 -0.68927258 -1.6826215 185.57001
35.510895 -3.4631023 5.0144067 185.57001
7.7746038 -0.75819683 -1.6603827 185.57001
35.548519 -3.4667716 5.868114 185.57001
8.3351116 -0.81285882 -1.5778662 185.57001
35.484375 -3.4605162 6.7173181 185.57001
8.6048498 -0.86342883 -1.4208242 185.73
9.1792421 -0.92106456 -1.2965366 185.73
10.234512 -1.0269526 -1.2028567 185.73
10.325089 -1.0360411 -0.96811974 185.73
10.354591 -1.0390016 -0.72769952 185.73
4.4194651 -0.44345844 -1.9775536 185.73
16.701887 -1.6759026 -0.78278792 185.73
4.6659341 -0.46818969 -1.9587194 185.73
21.828472 -2.190315 -0.50933766 185.73
4.9660439 -0.49830335 -1.9489136 185.73
16.696157 -1.6753277 0 185.73
5.2677751 -0.52857971 -1.9269415 185.73
5.6388988 -0.56581903 -1.9149399 185.73
16.658154 -1.6715144 0.78073823 185.73
6.0086575 -0.60292137 -1.8843557 185.73
16.651516 -1.6708484 1.1702346 185.73
6.4427056 -0.64647472 -1.8566933 185.73
35.657318 -3.5779307 3.3433666 185.73
6.5396791 -0.65620518 -1.7205904 185.73
35.486759 -3.5608163 4.1707392 185.73
7.065897 -0.70900702 -1.6826215 185.73
35.493202 -3.5614629 5.0132933 185.73
7.7627234 -0.7789281 -1.6583036 185.73
35.536736 -3.5658309 5.8677897 185.73
8.3308535 -0.83593541 -1.5774958 185.73
35.466751 -3.5588086 6.715837 185.73
8.6099472 -0.89127028 -1.4221212 185.91
9.190093 -0.95132488 -1.298485 185.91
10.290513 -1.0652363 -1.2098256 185.91
10.424703 -1.0791272 -0.73286152 185.91
4.4216847 -0.45771664 -1.9791805 185.91
16.688591 -1.7275419 -0.78241521 185.91
4.6736183 -0.48379591 -1.9625736 185.91
21.79563 -2.2562039 -0.50873417 185.91
4.9607477 -0.51351851 -1.9474586 185.91
16.664949 -1.7250948 0 185.91
5.271697 -0.54570681 -1.9289936 185.91
16.640572 -1.7225713 0.38840944 185.91
5.6333241 -0.58314109 -1.9136593 185.91
16.642885 -1.7228106 0.78027242 185.91
6.0048347 -0.62159854 -1.8837599 185.91
16.62237 -1.7206872 1.1685605 185.91
6.4387307 -0.66651386 -1.8561419 185.91
35.622131 -3.6874731 3.3411372 185.91
6.5375853 -0.6767469 -1.7205904 185.91
35.459587 -3.6706471 4.1688809 185.91
7.0713778 -0.73200321 -1.684466 185.91
35.456226 -3.6702993 5.009675 185.91
7.7602382 -0.80331153 -1.6583036 185.91
35.497875 -3.6746104 5.8632507 185.91
8.326231 -0.86190104 -1.5771255 185.91
35.424114 -3.666975 6.7099118 185.91
8.6249266 -0.91869384 -1.4250393 186.08
11.851823 -1.2624103 -1.6750875 186.08
10.340639 -1.101445 -1.2160978 186.08
10.53057 -1.1216756 -0.74053472 186.08
4.4184904 -0.47064051 -1.9783671 186.08
16.667498 -1.7753575 -0.78166991 186.08
4.666657 -0.49707428 -1.9602611 186.08
21.792816 -2.3212864 -0.50882703 186.08
4.9573498 -0.52803773 -1.9467312 186.08
16.643848 -1.7728384 0 186.08
5.2663169 -0.56094772 -1.9276255 186.08
16.641352 -1.7725725 0.3885487 186.08
5.6372213 -0.60045499 -1.91558 186.08
16.615847 -1.7698557 0.77924758 186.08
6.0010657 -0.63921028 -1.8831642 186.08
16.617191 -1.769999 1.1685605 186.08
6.4386363 -0.68581861 -1.8566933 186.08
35.587273 -3.7906187 3.3389077 186.08
6.5374722 -0.69634622 -1.7210969 186.08
35.409035 -3.7716336 4.1642346 186.08
7.0633693 -0.75236273 -1.6830826 186.08
35.415642 -3.772337 5.0054998 186.08
7.7617111 -0.82674742 -1.6591353 186.08
35.451492 -3.7761557 5.8574142 186.08
8.3138657 -0.88556075 -1.575274 186.08
35.381809 -3.7687335 6.7039871 186.08
8.4416761 -0.92451394 -1.3952092 186.25
11.848024 -1.2975698 -1.6750875 186.25
10.453831 -1.1448807 -1.2298036 186.25
10.641881 -1.1654755 -0.99877411 186.25
10.656108 -1.1670337 -0.74960309 186.25
4.418891 -0.48394725 -1.9791805 186.25
16.652227 -1.8237156 -0.78120404 186.25
4.6743345 -0.5119229 -1.9641154 186.25
21.775894 -2.3848484 -0.50859493 186.25
4.959465 -0.54314977 -1.9481862 186.25
16.64448 -1.8228669 0 186.25
5.2683659 -0.57697988 -1.9289936 186.25
16.628069 -1.8210698 0.388363 186.25
5.6316476 -0.61676574 -1.9142996 186.25
16.61648 -1.8198006 0.77952707 186.25
6.0010405 -0.65722078 -1.8837599 186.25
16.603933 -1.8184265 1.1680024 186.25
6.4384842 -0.70512873 -1.8572445 186.25
35.550137 -3.893373 3.3364925 186.25
6.5411472 -0.71637213 -1.7226163 186.25
35.417435 -3.8788402 4.1665578 186.25
7.0630403 -0.7735287 -1.6835437 186.25
35.396416 -3.876538 5.0043864 186.25
7.7689471 -0.85083812 -1.6612144 186.25
35.422474 -3.8793919 5.854496 186.25
8.2467279 -0.90316361 -1.563054 186.25
35.35289 -3.8717711 6.7006545 186.25
8.4367695 -0.95080864 -1.3948849 186.42999
11.834049 -1.333676 -1.6736957 186.42999
9.084197 -1.0237726 -1.069051 186.42999
10.768769 -1.2136208 -1.0110358 186.42999
10.824874 -1.2199436 -0.76174068 186.42999
4.411902 -0.49721333 -1.9767401 186.42999
16.632519 -1.8744549 -0.78055191 186.42999
4.6763706 -0.52701855 -1.965657 186.42999
21.750412 -2.4512322 -0.50817716 186.42999
4.9595857 -0.5589363 -1.9489136 186.42999
16.624758 -1.8735802 0 186.42999
5.2702622 -0.59394902 -1.9303617 186.42999
16.60041 -1.8708363 0.38785237 186.42999
5.6334481 -0.63487941 -1.91558 186.42999
16.586859 -1.8693088 0.77840906 186.42999
5.9837685 -0.67435986 -1.8789939 186.42999
16.580296 -1.8685694 1.1667467 186.42999
6.4324164 -0.7249217 -1.8561419 186.42999
35.515961 -4.0025845 3.3344488 186.42999
6.5407872 -0.73713487 -1.7231228 186.42999
35.405075 -3.990088 4.1665578 186.42999
7.0586414 -0.79549611 -1.6830826 186.42999
35.389969 -3.9883854 5.0052214 186.42999
7.75846 -0.87436438 -1.6595511 186.42999
35.384617 -3.9877825 5.8502808 186.42999
8.2360373 -0.92818654 -1.5615728 186.42999
35.315159 -3.9799547 6.6958404 186.42999
8.4750805 -0.9806003 -1.4016939 186.60001
11.83791 -1.3696929 -1.6748091 186.60001
9.0298138 -1.0447851 -1.0630112 186.60001
8.8423538 -1.0230953 -0.83045387 186.60001
16.610353 -1.9218835 -1.169258 186.60001
4.4158521 -0.51093149 -1.9791805 186.60001
16.616961 -1.9226481 -0.78008604 186.60001
4.6656203 -0.53983068 -1.9618028 186.60001
21.729141 -2.5141473 -0.5078522 186.60001
4.9560547 -0.57343513 -1.9481862 186.60001
16.593298 -1.9199102 0 186.60001
5.2610092 -0.60871953 -1.9276255 186.60001
16.594788 -1.9200823 0.38785237 186.60001
5.635304 -0.65202689 -1.9168606 186.60001
16.571316 -1.9173666 0.77794325 186.60001
5.9950171 -0.69364715 -1.8831642 186.60001
35.279907 -4.0820246 2.48347 186.60001
6.432147 -0.74422479 -1.8566933 186.60001
35.478214 -4.1049695 3.3320336 186.60001
6.540493 -0.7567609 -1.7236294 186.60001
35.371376 -4.0926075 4.1640024 186.60001
7.0736489 -0.81844914 -1.6872326 186.60001
35.356339 -4.090868 5.0021596 186.60001
7.751945 -0.89693063 -1.6587194 186.60001
35.353027 -4.0904846 5.8470383 186.60001
8.2508192 -0.95465231 -1.5649055 186.60001
35.277817 -4.0817823 6.6910262 186.60001
8.4936914 -1.0083011 -1.4052607 186.77
11.831827 -1.4045771 -1.6745307 186.77
15.746573 -1.8693036 -1.4793969 186.77
16.602596 -1.9709237 -1.1691185 186.77
4.4143167 -0.52403134 -1.9791805 186.77
16.599279 -1.9705299 -0.77952707 186.77
4.6676631 -0.55410659 -1.9633445 186.77
21.699745 -2.576015 -0.50734156 186.77
4.9487815 -0.58747864 -1.9460037 186.77
16.589516 -1.9693707 0 186.77
5.2647786 -0.62499118 -1.9296776 186.77
16.577105 -1.9678973 0.38757384 186.77
5.6276999 -0.66807419 -1.9149399 186.77
16.565554 -1.9665263 0.77794325 186.77
5.9986205 -0.71210682 -1.8849514 186.77
16.549105 -1.9645734 1.1653516 186.77
6.4375472 -0.76421261 -1.8588983 186.77
35.438194 -4.2069306 3.3294327 186.77
6.5478253 -0.77730393 -1.7261618 186.77
35.339352 -4.1951966 4.1616797 186.77
7.0479989 -0.83668041 -1.6816993 186.77
35.324375 -4.1934195 4.9993763 186.77
7.7531347 -0.92038834 -1.6595511 186.77
35.315258 -4.1923366 5.8428235 186.77
8.232336 -0.97727525 -1.5619431 186.77
35.24408 -4.183887 6.6869531 186.77
8.349431 -1.0177859 -1.3819153 186.95
11.852914 -1.4448564 -1.6781492 186.95
8.9581919 -1.0919931 -1.0553453 186.95
15.687251 -1.9122577 -1.4743809 186.95
4.4053941 -0.5370124 -1.9759266 186.95
16.587059 -2.0219431 -0.77924758 186.95
4.6658993 -0.56876773 -1.9633445 186.95
21.701469 -2.6453838 -0.50757366 186.95
4.9506102 -0.6034736 -1.9474586 186.95
16.567364 -2.0195425 0 186.95
5.2627892 -0.64152789 -1.9296776 186.95
16.564886 -2.0192401 0.38743457 186.95
5.6218119 -0.6852923 -1.9136593 186.95
16.533514 -2.0154159 0.77673209 186.95
6.002039 -0.73164159 -1.8867387 186.95
16.532948 -2.015347 1.1646541 186.95
6.4293895 -0.78373504 -1.8572445 186.95
35.407013 -4.3160734 3.3277607 186.95
6.5453515 -0.7978707 -1.7261618 186.95
35.294445 -4.302352 4.1579628 186.95
7.0491991 -0.85928917 -1.6826215 186.95
35.287437 -4.3014975 4.9960361 186.95
7.7540889 -0.94521439 -1.6603827 186.95
35.280361 -4.3006349 5.8392568 186.95
8.2214212 -1.0021818 -1.5604619 186.95
35.217106 -4.2929239 6.684361 186.95
8.3816242 -1.0469577 -1.3877516 187.12
14.160707 -1.7688291 -1.6688533 187.12
15.699292 -1.9610156 -1.4760529 187.12
16.588268 -2.0720584 -1.1689789 187.12
4.4074073 -0.55053401 -1.9775536 187.12
16.571074 -2.0699108 -0.77878171 187.12
4.6605287 -0.58215171 -1.9618028 187.12
21.655827 -2.7050529 -0.50669163 187.12
4.9524951 -0.61862153 -1.9489136 187.12
16.547407 -2.0669544 0 187.12
5.2534032 -0.65620828 -1.9269415 187.12
16.536997 -2.065654 0.38692394 187.12
5.6235137 -0.70243919 -1.9149399 187.12
16.525478 -2.0642154 0.77663887 187.12
5.9922638 -0.74850017 -1.8843557 187.12
35.174095 -4.3936343 2.4787266 187.12
6.425128 -0.80256969 -1.8566933 187.12
35.372314 -4.4183941 3.325717 187.12
6.5448751 -0.81752741 -1.7266684 187.12
35.25787 -4.404099 4.1551752 187.12
7.0427566 -0.8797183 -1.6816993 187.12
35.260761 -4.40446 4.9940877 187.12
7.7531915 -0.96845955 -1.6607985 187.12
35.240028 -4.4018703 5.8347173 187.12
8.2067108 -1.0251091 -1.5582401 187.12
35.17886 -4.3942294 6.6795468 187.12
8.3686934 -1.0705698 -1.3861305 187.28999
8.158679 -1.0437037 -1.1559718 187.28999
14.155396 -1.8108369 -1.6688533 187.28999
15.679578 -2.0058188 -1.4747523 187.28999
16.572151 -2.1200018 -1.1682814 187.28999
4.4075665 -0.56384045 -1.9783671 187.28999
16.552969 -2.117548 -0.77822274 187.28999
4.6624422 -0.59644556 -1.9633445 187.28999
21.647705 -2.769295 -0.50669163 187.28999
4.9487896 -0.63307673 -1.9481862 187.28999
16.539217 -2.1157887 0 187.28999
5.2551613 -0.67226946 -1.9283096 187.28999
16.534761 -2.1152186 0.38701677 187.28999
5.6214051 -0.7191214 -1.9149399 187.28999
16.513336 -2.1124778 0.77635938 187.28999
5.9881229 -0.76603401 -1.8837599 187.28999
16.500908 -2.110888 1.1632589 187.28999
6.4227185 -0.82162982 -1.8566933 187.28999
35.32547 -4.5190306 3.3225586 187.28999
6.5481782 -0.83767933 -1.7281879 187.28999
35.222973 -4.505919 4.1526198 187.28999
7.0497675 -0.90184546 -1.6840048 187.28999
35.214142 -4.5047889 4.9893556 187.28999
7.7386408 -0.98996997 -1.6583036 187.28999
35.197449 -4.5026536 5.8298535 187.28999
8.1665916 -1.0447158 -1.5512042 187.28999
35.146172 -4.4960938 6.6758437 187.28999
8.4731054 -1.1094882 -1.4039637 187.46001
8.7309322 -1.1432486 -1.2375273 187.46001
14.157839 -1.8538604 -1.6697824 187.46001
15.699226 -2.0556934 -1.4771676 187.46001
16.557877 -2.1681268 -1.1677234 187.46001
4.4058743 -0.57691544 -1.9783671 187.46001
16.54067 -2.165874 -0.77794325 187.46001
4.6643119 -0.61075586 -1.9648862 187.46001
16.524448 -2.1637497 -0.38692394 187.46001
4.9468899 -0.64775723 -1.9481862 187.46001
16.520969 -2.1632941 0 187.46001
5.2550068 -0.68810284 -1.9289936 187.46001
16.512552 -2.1621921 0.38664541 187.46001
5.6211252 -0.73604327 -1.91558 187.46001
16.487186 -2.1588705 0.7754277 187.46001
5.9915028 -0.78454137 -1.8855472 187.46001
16.486658 -2.1588016 1.1627009 187.46001
6.4183459 -0.84043318 -1.8561419 187.46001
35.290188 -4.6209793 3.3205152 187.46001
6.5418267 -0.85660207 -1.7271749 187.46001
35.187786 -4.6075706 4.1500645 187.46001
7.043201 -0.92225319 -1.6830826 187.46001
35.177055 -4.6061654 4.9860153 187.46001
7.7376094 -1.0131806 -1.6587194 187.46001
35.170238 -4.6052728 5.8275843 187.46001
8.1556606 -1.0679213 -1.549723 187.46001
35.105392 -4.5967822 6.6706595 187.46001
8.4756451 -1.1354096 -1.4049364 187.63
8.6764631 -1.1623116 -1.2302902 187.63
9.1178617 -1.221442 -1.0757878 187.63
16.541483 -2.2159209 -1.1670258 187.63
4.4095759 -0.59071314 -1.9808074 187.63
16.524271 -2.2136152 -0.77747738 187.63
4.6551623 -0.62361228 -1.9618028 187.63
16.537773 -2.2154238 -0.38738817 187.63
4.9467926 -0.66267949 -1.9489136 187.63
16.530336 -2.2144277 0 187.63
5.2548051 -0.70394129 -1.9296776 187.63
5.6189165 -0.75271821 -1.91558 187.63
16.49457 -2.2096362 0.77607989 187.63
5.985364 -0.801808 -1.8843557 187.63
16.478203 -2.207444 1.1625614 187.63
6.4139185 -0.85921782 -1.8555907 187.63
35.262505 -4.7238159 3.3192146 187.63
6.5430918 -0.87652206 -1.7281879 187.63
35.152302 -4.709053 4.1475091 187.63
7.0404339 -0.94314671 -1.6830826 187.63
35.145565 -4.7081509 4.9835105 187.63
7.7365079 -1.0363938 -1.6591353 187.63
35.134903 -4.7067223 5.8240175 187.63
8.1738844 -1.0949854 -1.5537964 187.63
35.058483 -4.696485 6.6643643 187.63
8.3625431 -1.1470128 -1.3867788 187.81
8.7061262 -1.194139 -1.2350221 187.81
9.0116415 -1.2360437 -1.0637081 187.81
15.700186 -2.1534498 -1.4784681 187.81
16.526533 -2.2667921 -1.1664678 187.81
4.404078 -0.60406673 -1.9791805 187.81
16.50338 -2.2636163 -0.77682525 187.81
4.656837 -0.63873535 -1.9633445 187.81
21.586025 -2.9607558 -0.50585604 187.81
4.9409947 -0.67771065 -1.9474586 187.81
16.487631 -2.2614563 0 187.81
5.2507057 -0.72019082 -1.9289936 187.81
16.475266 -2.2597601 0.38608834 187.81
5.6165242 -0.77036679 -1.91558 187.81
16.44796 -2.2560148 0.77421653 187.81
5.9865985 -0.82112652 -1.8855472 187.81
16.471188 -2.2592008 1.1625614 187.81
6.4111876 -0.87936348 -1.8555907 187.81
35.219868 -4.8307843 3.3166137 187.81
6.542223 -0.89733636 -1.7286944 187.81
35.111748 -4.8159547 4.1444893 187.81
7.0335798 -0.96473128 -1.6821604 187.81
35.120792 -4.8171949 4.9821186 187.81
7.7409668 -1.061757 -1.6607985 187.81
35.096481 -4.8138604 5.8201265 187.81
8.168457 -1.1203918 -1.553426 187.81
35.035767 -4.8055329 6.6628833 187.81
8.4626875 -1.1863409 -1.4039637 187.98
8.75354 -1.2271141 -1.2422591 187.98
9.0079346 -1.2627764 -1.0637081 187.98
15.675979 -2.1975355 -1.476796 187.98
16.509855 -2.3144324 -1.1657702 187.98
4.4022665 -0.61713123 -1.9791805 187.98
16.486698 -2.3111861 -0.77635938 187.98
4.6567492 -0.65280586 -1.9641154 187.98
21.555365 -3.0217364 -0.5053454 187.98
4.9408073 -0.69262654 -1.9481862 187.98
16.470945 -2.3089776 0 187.98
5.2448235 -0.73524499 -1.9276255 187.98
16.484329 -2.310854 0.38645974 187.98
5.6142139 -0.78702796 -1.91558 187.98
16.447128 -2.305639 0.77449608 187.98
5.9803543 -0.83835536 -1.8843557 187.98
16.424896 -2.3025222 1.1597711 187.98
6.4142618 -0.89918262 -1.8572445 187.98
35.181717 -4.9319453 3.3143842 187.98
6.5491118 -0.91808653 -1.7312269 187.98
35.071732 -4.9165268 4.1414695 187.98
7.02105 -0.98424518 -1.6798548 187.98
35.078884 -4.9175296 4.9782219 187.98
7.7261581 -1.0830907 -1.6583036 187.98
35.060543 -4.9149585 5.8165598 187.98
8.1670427 -1.144896 -1.5537964 187.98
35.009678 -4.9078279 6.6606617 187.98
8.3710089 -1.200316 -1.3893728 188.16
8.7437601 -1.2537646 -1.2414241 188.16
8.3078346 -1.1912575 -0.98147339 188.16
15.665055 -2.2462068 -1.4764245 188.16
16.490654 -2.364589 -1.1649331 188.16
4.4003057 -0.63095832 -1.9791805 188.16
16.467491 -2.3612678 -0.77580041 188.16
4.658329 -0.66795611 -1.965657 188.16
21.535868 -3.0880206 -0.5051133 188.16
4.9404511 -0.70840949 -1.9489136 188.16
16.467569 -2.361279 0 188.16
5.2462082 -0.75225192 -1.9289936 188.16
16.451258 -2.3589401 0.38585624 188.16
5.6079626 -0.80412376 -1.9142996 188.16
16.439804 -2.3572977 0.77449608 188.16
5.9776912 -0.85713899 -1.8843557 188.16
16.411655 -2.3532615 1.1593525 188.16
6.4095025 -0.9190563 -1.8566933 188.16
35.138451 -5.0384903 3.3117833 188.16
6.5442801 -0.93838197 -1.7307204 188.16
35.042347 -5.0247097 4.139843 188.16
7.0217762 -1.00685 -1.680777 188.16
35.037777 -5.0240541 4.9746032 188.16
7.7246537 -1.1076354 -1.6587194 188.16
35.031254 -5.023119 5.81429 188.16
8.1614609 -1.1702689 -1.553426 188.16
34.953232 -5.0119314 6.652885 188.16
8.3463564 -1.2190895 -1.3858062 188.31
14.168092 -2.0694265 -1.6744285 188.31
9.0660143 -1.3242046 -0.85479158 188.31
16.478483 -2.4068882 -1.1645145 188.31
4.4022546 -0.64300424 -1.9808074 188.31
16.457298 -2.4037938 -0.77561408 188.31
4.6565642 -0.68014926 -1.965657 188.31
21.519796 -3.1432347 -0.50492764 188.31
4.9367361 -0.7210719 -1.9481862 188.31
16.447479 -2.4023595 0 188.31
5.2460804 -0.7662555 -1.9296776 188.31
16.429199 -2.3996894 0.38548487 188.31
5.6058378 -0.8188026 -1.9142996 188.31
16.417763 -2.3980191 0.77375072 188.31
5.9773159 -0.87306154 -1.8849514 188.31
16.401491 -2.3956423 1.1590736 188.31
6.4089766 -0.93611103 -1.8572445 188.31
35.097553 -5.1264358 3.3091824 188.31
6.54563 -0.9560709 -1.7317334 188.31
35.005486 -5.112988 4.1370554 188.31
7.0248933 -1.0260733 -1.6821604 188.31
35.006866 -5.1131892 4.9720984 188.31
7.7197919 -1.1275719 -1.6583036 188.31
34.994549 -5.1113906 5.8103991 188.31
8.1758718 -1.1941881 -1.5567588 188.31
34.945824 -5.1042733 6.653996 188.31
8.394968 -1.2546364 -1.3945607 188.5
9.1572037 -1.3685533 -1.0827568 188.5
9.2801857 -1.386933 -0.8754136 188.5
16.460546 -2.4600451 -1.163817 188.5
4.3964844 -0.65705895 -1.9791805 188.5
16.435406 -2.4562879 -0.77496189 188.5
4.6488075 -0.69476891 -1.9633445 188.5
21.503323 -3.2136931 -0.50478834 188.5
4.9398451 -0.7382648 -1.9503686 188.5
16.425575 -2.4548187 0 188.5
5.2397933 -0.78309232 -1.9283096 188.5
16.433016 -2.4559305 0.38576341 188.5
5.6030917 -0.83738768 -1.9142996 188.5
16.405767 -2.4518585 0.7735644 188.5
5.9781642 -0.89344263 -1.8861428 188.5
16.383591 -2.448544 1.158376 188.5
6.4058371 -0.95735878 -1.8572445 188.5
35.066574 -5.2407351 3.3078818 188.5
6.5481644 -0.97862971 -1.7332529 188.5
34.974586 -5.2269869 4.1354294 188.5
7.0041294 -1.0467741 -1.6780103 188.5
34.979923 -5.2277846 4.9707065 188.5
7.7237496 -1.1543221 -1.6599669 188.5
34.961792 -5.2250748 5.8078055 188.5
8.1524286 -1.2183886 -1.5530558 188.5
34.893715 -5.214901 6.6473303 188.5
8.3521891 -1.2735893 -1.3880758 188.67
9.0318136 -1.3772223 -1.284011 188.67
15.642472 -2.3852532 -1.4762386 188.67
16.441339 -2.5070691 -1.16298 188.67
4.3927093 -0.66982526 -1.9783671 188.67
16.418171 -2.503536 -0.77449608 188.67
4.64855 -0.70883733 -1.9641154 188.67
21.467997 -3.2735622 -0.5041849 188.67
4.9321079 -0.75207585 -1.9481862 188.67
16.428104 -2.5050509 0 188.67
5.2337308 -0.79806906 -1.9269415 188.67
16.390078 -2.4992521 0.38492781 188.67
5.6024556 -0.8542943 -1.9149399 188.67
16.384596 -2.4984164 0.7729122 188.67
5.9717126 -0.91060066 -1.8849514 188.67
16.362448 -2.495039 1.1573994 188.67
6.4048691 -0.97665083 -1.8577958 188.67
35.03709 -5.3426552 3.3065813 188.67
6.549057 -0.9986375 -1.7342659 188.67
34.937321 -5.3274417 4.132874 188.67
7.0240793 -1.0710715 -1.6835437 188.67
34.936848 -5.3273692 4.9668097 188.67
7.7222247 -1.1775287 -1.6603827 188.67
34.93248 -5.3267031 5.8055358 188.67
8.133234 -1.2402017 -1.5500933 188.67
34.874203 -5.3178167 6.6465898 188.67
8.3054714 -1.2916927 -1.3809426 188.84
7.9888673 -1.2424536 -0.9454667 188.84
15.637295 -2.4319608 -1.4764245 188.84
16.429886 -2.5552273 -1.1627009 188.84
4.3961186 -0.68369806 -1.9808074 188.84
16.406723 -2.5516245 -0.77430969 188.84
4.6409554 -0.72177589 -1.9618028 188.84
21.456213 -3.3369372 -0.50413847 188.84
4.9335365 -0.76727897 -1.9496411 188.84
16.398861 -2.5504022 0 188.84
5.2369108 -0.81446075 -1.9289936 188.84
16.416176 -2.5530951 0.38571697 188.84
5.5980239 -0.87062216 -1.9142996 188.84
16.373163 -2.5464053 0.77272588 188.84
5.9689841 -0.92831504 -1.8849514 188.84
16.349058 -2.5426564 1.1569809 188.84
6.4000435 -0.99535471 -1.8572445 188.84
34.997475 -5.4429159 3.3043518 188.84
6.5441532 -1.0177672 -1.7337594 188.84
34.897808 -5.4274158 4.1300864 188.84
7.0343313 -1.0940012 -1.6867715 188.84
34.897404 -5.4273529 4.9634695 188.84
7.7070985 -1.198632 -1.6578878 188.84
34.89312 -5.4266868 5.8016448 188.84
8.1411705 -1.2661402 -1.5523151 188.84
34.842735 -5.4188509 6.6436276 188.84
8.3072195 -1.318707 -1.3819153 189.02
8.7630777 -1.391071 -1.246991 189.02
8.0594769 -1.2793797 -0.95429415 189.02
7.8846073 -1.2516205 -0.74480754 189.02
16.407984 -2.604641 -1.1617243 189.02
4.393949 -0.69750547 -1.9808074 189.02
16.38876 -2.6015892 -0.77384388 189.02
4.6477785 -0.73779899 -1.965657 189.02
21.425877 -3.4011927 -0.50367427 189.02
4.9329414 -0.78306639 -1.9503686 189.02
16.371016 -2.5987725 0 189.02
5.2324705 -0.83061427 -1.9283096 189.02
16.358706 -2.5968184 0.38455644 189.02
5.59339 -0.88790751 -1.9136593 189.02
16.349297 -2.5953248 0.77198052 189.02
5.9641528 -0.94676322 -1.8843557 189.02
16.335077 -2.5930674 1.1565623 189.02
6.3968849 -1.0154561 -1.8572445 189.02
34.962502 -5.5500269 3.3026798 189.02
6.550478 -1.0398378 -1.7362919 189.02
34.862926 -5.5342207 4.127996 189.02
7.0154834 -1.1136539 -1.6830826 189.02
34.866489 -5.5347857 4.9615211 189.02
7.7090912 -1.2237587 -1.6591353 189.02
34.854458 -5.5328765 5.7980781 189.02
8.1604462 -1.2954079 -1.5567588 189.02
34.806129 -5.5252042 6.6399245 189.02
8.3285971 -1.3474467 -1.3861305 189.19
8.1215448 -1.3139486 -1.1562501 189.19
8.0340748 -1.2997972 -0.95173883 189.19
16.396246 -2.6526756 -1.1614453 189.19
4.3846455 -0.70937228 -1.9775536 189.19
16.377024 -2.6495659 -0.77365756 189.19
4.6382818 -0.75040698 -1.9625736 189.19
16.376589 -2.6494954 -0.38515991 189.19
4.9287577 -0.79740173 -1.9496411 189.19
16.357309 -2.6463764 0 189.19
5.2299829 -0.84613568 -1.9283096 189.19
16.339087 -2.6434281 0.38427791 189.19
5.5888605 -0.90419686 -1.9130192 189.19
16.327719 -2.6415892 0.77132839 189.19
5.9613175 -0.96445507 -1.8843557 189.19
16.303679 -2.6376996 1.1548882 189.19
6.3881502 -1.0335104 -1.8555907 189.19
34.920322 -5.6496038 3.3002646 189.19
6.5435443 -1.0586509 -1.735279 189.19
34.832626 -5.6354156 4.1263695 189.19
7.0121484 -1.1344643 -1.6830826 189.19
34.832317 -5.6353655 4.9590158 189.19
7.7015638 -1.2460017 -1.6583036 189.19
34.824249 -5.6340609 5.7958083 189.19
8.1720886 -1.3221258 -1.5597212 189.19
34.78376 -5.6275101 6.6388135 189.19
8.1921482 -1.3503261 -1.364082 189.36
8.1391058 -1.3415831 -1.1593119 189.36
8.1281834 -1.3397827 -0.96335387 189.36
15.642087 -2.5783124 -1.4790254 189.36
16.374523 -2.6990411 -1.1604687 189.36
4.3915353 -0.72386444 -1.9816209 189.36
16.357264 -2.6961963 -0.77309853 189.36
4.6414976 -0.76506615 -1.9648862 189.36
21.381643 -3.5243735 -0.5031172 189.36
4.9226933 -0.81141615 -1.9481862 189.36
16.355307 -2.6958737 0 189.36
5.2293038 -0.86195523 -1.9289936 189.36
34.860088 -5.7460489 0.82026947 189.36
5.5824142 -0.92015904 -1.9117386 189.36
34.835571 -5.7420077 1.6464447 189.36
5.9565458 -0.98182786 -1.8837599 189.36
16.297749 -2.6863863 1.1550277 189.36
6.3850555 -1.0524598 -1.8555907 189.36
34.889652 -5.7509227 3.2989643 189.36
6.5441923 -1.0786906 -1.7362919 189.36
34.794193 -5.7351875 4.1238146 189.36
7.0164323 -1.1565307 -1.6849271 189.36
34.799809 -5.7361131 4.956789 189.36
7.713275 -1.2713926 -1.6616303 189.36
34.789856 -5.7344728 5.7928901 189.36
8.1836433 -1.3489243 -1.5626837 189.36
34.728127 -5.7242975 6.6314073 189.36
8.1180391 -1.3628638 -1.3524094 189.53
8.1878262 -1.3745798 -1.1668273 189.53
8.1437626 -1.3671824 -0.9656769 189.53
16.354637 -2.7456315 -1.1596316 189.53
4.3875666 -0.73658866 -1.9808074 189.53
16.33934 -2.7430634 -0.77263272 189.53
4.6392074 -0.77883434 -1.9648862 189.53
21.353344 -3.5848191 -0.50269938 189.53
4.9221015 -0.82632691 -1.9489136 189.53
16.321594 -2.7400842 0 189.53
5.2248697 -0.8771559 -1.9283096 189.53
16.307337 -2.7376909 0.38390654 189.53
5.5890021 -0.93828684 -1.9149399 189.53
16.299934 -2.736448 0.77076936 189.53
5.9573722 -1.0001291 -1.8849514 189.53
16.283804 -2.7337399 1.1546092 189.53
6.383801 -1.0717183 -1.8561419 189.53
34.854763 -5.8514495 3.2972922 189.53
6.5447793 -1.0987436 -1.7373049 189.53
34.790737 -5.8407006 4.1254406 189.53
6.9976158 -1.1747662 -1.6812382 189.53
34.765057 -5.8363895 4.9542842 189.53
7.6978927 -1.2923293 -1.6591353 189.53
34.751278 -5.8340764 5.7893238 189.53
8.2261248 -1.3810093 -1.571571 189.53
34.685791 -5.8230824 6.6265936 189.53
8.0769987 -1.3806266 -1.3462487 189.7
8.1778555 -1.3978664 -1.1659923 189.7
8.1337967 -1.3903353 -0.96498001 189.7
15.630437 -2.6717596 -1.4793969 189.7
16.338552 -2.7927997 -1.1590736 189.7
4.3817596 -0.74898791 -1.9791805 189.7
16.323252 -2.7901847 -0.77226007 189.7
4.6441522 -0.79383951 -1.9679695 189.7
21.33473 -3.6468124 -0.50251371 189.7
4.9196281 -0.84092742 -1.9489136 189.7
16.32522 -2.7905211 0 189.7
5.2185392 -0.89202124 -1.9269415 189.7
16.310968 -2.788085 0.38418508 189.7
5.5861936 -0.95486557 -1.9149399 189.7
16.287806 -2.7841256 0.77058303 189.7
5.9562607 -1.0181222 -1.8855472 189.7
16.255955 -2.7786813 1.153214 189.7
6.374908 -1.0896829 -1.8544881 189.7
34.813694 -5.9508133 3.2950628 189.7
6.5453048 -1.1188095 -1.738318 189.7
34.753674 -5.9405541 4.1231174 189.7
6.9883447 -1.1945395 -1.6798548 189.7
34.724159 -5.9355097 4.9509439 189.7
7.6940246 -1.3151637 -1.6591353 189.7
34.710472 -5.9331698 5.7854328 189.7
8.214241 -1.404086 -1.5700898 189.7
34.674171 -5.9269648 6.6277046 189.7
8.2031364 -1.427251 -1.3679729 189.87
8.1120224 -1.4113981 -0.96288931 189.87
8.0868645 -1.4070209 -0.76580113 189.87
16.32233 -2.8398969 -1.1585156 189.87
4.3849182 -0.76292509 -1.9816209 189.87
16.30703 -2.8372345 -0.77188736 189.87
4.6326857 -0.80603373 -1.9641154 189.87
21.323816 -3.7100976 -0.50251371 189.87
4.9207821 -0.85615921 -1.9503686 189.87
16.291254 -2.8344898 0 189.87
5.2214241 -0.90846747 -1.9289936 189.87
16.286865 -2.8337262 0.38381371 189.87
5.5833359 -0.97143596 -1.9149399 189.87
16.263727 -2.8297005 0.76983774 189.87
5.9475708 -1.0348085 -1.8837599 189.87
16.249603 -2.8272433 1.1533536 189.87
6.3867989 -1.1112292 -1.8588983 189.87
34.789997 -6.0530572 3.2945054 189.87
6.5419564 -1.1382247 -1.738318 189.87
34.720238 -6.0409198 4.1212592 189.87
7.0001078 -1.2179378 -1.6835437 189.87
34.694691 -6.0364752 4.9492736 189.87
7.6900887 -1.3379865 -1.6591353 189.87
34.681049 -6.0341015 5.7834873 189.87
8.1790581 -1.4230615 -1.5641649 189.87
34.629326 -6.0251021 6.62252 189.87
8.2413635 -1.4605916 -1.3751062 190.05
8.4051313 -1.4896156 -1.1996721 190.05
