# .PCD v0.7 - Point Cloud Data file format
VERSION 0.7
FIELDS x y z intensity
SIZE 4 4 4 4
TYPE F F F F
COUNT 1 1 1 1
WIDTH 1197
HEIGHT 1
VIEWPOINT 0 0 0 1 0 0 0
POINTS 1197
DATA ascii
5.3453889 -0.12503761 -1.9460946 181.34
5.7205982 -0.13381439 -1.9335066 181.34
6.1287966 -0.14336284 -1.9129516 181.34
6.6443458 -0.15542239 -1.9057567 181.34
7.1065149 -0.1662333 -1.8608917 181.34
7.1383491 -0.16697796 -1.6918439 181.34
6.9566393 -0.16272746 -1.4790838 181.34
7.2052231 -0.16854225 -1.3579055 181.34
7.8322768 -0.20509538 -1.2872369 181.5
8.0322819 -0.21033269 -1.1292505 181.5
12.335681 -0.32302117 -1.4430562 181.5
13.009028 -0.34065339 -1.2140976 181.5
14.302161 -0.37451527 -1.0004474 181.5
4.5077152 -0.11803868 -2.007652 181.5
21.704964 -0.56836444 -1.0125374 181.5
4.7467928 -0.12429915 -1.9833865 181.5
34.420921 -0.90134358 -0.7994262 181.5
5.0023079 -0.13099004 -1.954006 181.5
5.3450189 -0.13996424 -1.9460946 181.5
5.710732 -0.14954078 -1.9303055 181.5
6.1131039 -0.16007726 -1.9081856 181.5
6.6246672 -0.17347302 -1.9002439 181.5
7.1098909 -0.18617906 -1.8619046 181.5
6.9510918 -0.18202074 -1.6475765 181.5
6.8916221 -0.18046346 -1.4653616 181.5
7.746768 -0.22721222 -1.2732946 181.67999
7.7504659 -0.22732069 -1.0897254 181.67999
12.358433 -0.36247206 -1.4458439 181.67999
13.053676 -0.38286349 -1.2183707 181.67999
4.5036693 -0.13209234 -2.0060251 181.67999
21.701073 -0.63649112 -1.0124441 181.67999
4.7426896 -0.13910279 -1.9818448 181.67999
34.435909 -1.010003 -0.79984397 181.67999
4.9795256 -0.14604917 -1.9452763 181.67999
12.638565 -0.37068832 0 181.67999
5.3389168 -0.1565901 -1.9440424 181.67999
12.587193 -0.3691816 0.29236317 181.67999
5.7178097 -0.167703 -1.9328663 181.67999
6.1182961 -0.17944925 -1.9099729 181.67999
6.6010294 -0.19360778 -1.8936286 181.67999
7.1112051 -0.2085712 -1.8624111 181.67999
6.8454404 -0.20077634 -1.6226761 181.67999
6.9692392 -0.20440735 -1.4819945 181.67999
7.408412 -0.21728826 -1.3964171 181.67999
7.7874823 -0.25153425 -1.2801036 181.85001
7.7398601 -0.24999605 -1.0883336 181.85001
12.355317 -0.39907449 -1.4456116 181.85001
13.036559 -0.42107847 -1.2168844 181.85001
4.5014315 -0.14539541 -2.0052116 181.85001
12.787427 -0.41303155 -0.59664053 181.85001
4.7422562 -0.153174 -1.9818448 181.85001
34.35482 -1.1096544 -0.79803354 181.85001
4.9865184 -0.16106363 -1.9481862 181.85001
5.334672 -0.17230892 -1.9426744 181.85001
5.7059245 -0.1843003 -1.9290249 181.85001
6.1120119 -0.19741687 -1.9081856 181.85001
6.5274081 -0.21083409 -1.8726802 181.85001
7.1066875 -0.2295447 -1.8613981 181.85001
6.8973322 -0.22278257 -1.6351262 181.85001
6.9803338 -0.22546349 -1.4844894 181.85001
7.0069981 -0.22632475 -1.320875 181.85001
8.1042442 -0.28583884 -1.3323064 182.02
11.386944 -0.40162054 -1.6013258 182.02
11.323745 -0.3993915 -1.3250471 182.02
12.889975 -0.45463282 -1.2033222 182.02
4.5028062 -0.15881518 -2.0060251 182.02
12.794131 -0.4512524 -0.59701318 182.02
4.7436252 -0.16730891 -1.9826157 182.02
34.315411 -1.2103136 -0.79719794 182.02
4.9934659 -0.17612086 -1.9510961 182.02
5.34165 -0.18840142 -1.9454106 182.02
90.651192 -3.1972914 2.1059618 182.02
5.7053523 -0.20122929 -1.9290249 182.02
6.1285715 -0.21615635 -1.9135474 182.02
6.3384633 -0.22355929 -1.8186553 182.02
7.1311116 -0.25151619 -1.8679827 182.02
7.0036111 -0.24701922 -1.6604878 182.02
7.1477709 -0.25210378 -1.5202503 182.02
7.6466246 -0.26969847 -1.4415942 182.02
11.39164 -0.43563151 -1.6021607 182.19
12.779124 -0.48869079 -1.193104 182.19
4.5041409 -0.17224437 -2.0068386 182.19
21.632662 -0.82726187 -1.0095561 182.19
4.7338872 -0.18103017 -1.9787614 182.19
34.279701 -1.3109015 -0.7964552 182.19
4.9966445 -0.19107836 -1.952551 182.19
5.3410678 -0.20424956 -1.9454106 182.19
5.7104101 -0.21837372 -1.9309456 182.19
6.1031017 -0.23339076 -1.9058026 182.19
6.606729 -0.25265014 -1.8958337 182.19
7.1361341 -0.27289531 -1.8695022 182.19
7.2478786 -0.27716857 -1.7185887 182.19
7.1645851 -0.2739833 -1.5239927 182.19
7.6163306 -0.29125866 -1.4360397 182.19
7.7968221 -0.31996796 -1.2820491 182.35001
11.43985 -0.46947145 -1.6091194 182.35001
12.305714 -0.505005 -1.4402686 182.35001
12.869235 -0.52813089 -1.20165 182.35001
4.5036426 -0.18482162 -2.0068386 182.35001
12.59969 -0.51706928 -0.5880692 182.35001
4.737051 -0.1944003 -1.9803032 182.35001
12.609985 -0.51749176 -0.29301307 182.35001
4.9942303 -0.20495448 -1.9518236 182.35001
5.3423543 -0.21924089 -1.9460946 182.35001
5.7154579 -0.2345524 -1.9328663 182.35001
6.0642738 -0.2488672 -1.8938876 182.35001
6.6040769 -0.27101976 -1.8952825 182.35001
7.1218123 -0.29226673 -1.8659567 182.35001
7.1731863 -0.29437503 -1.7010663 182.35001
7.1501093 -0.293428 -1.5210819 182.35001
7.495698 -0.30761033 -1.4134511 182.35001
7.7090273 -0.34062761 -1.2677824 182.53
11.469976 -0.50680727 -1.613573 182.53
12.31399 -0.5441004 -1.4414302 182.53
12.686476 -0.56055892 -1.1847438 182.53
12.650735 -0.55897969 -0.88548869 182.53
4.4738345 -0.19767885 -1.9938231 182.53
12.607983 -0.5570907 -0.58853501 182.53
4.7364168 -0.20928119 -1.9803032 182.53
12.584327 -0.55604541 -0.292456 182.53
4.9917002 -0.22056104 -1.9510961 182.53
5.3247414 -0.23527662 -1.9399383 182.53
5.7127995 -0.2524232 -1.9322262 182.53
6.0043344 -0.26530483 -1.8754194 182.53
6.5743828 -0.29049274 -1.8870133 182.53
7.145987 -0.31574938 -1.8725412 182.53
7.1372299 -0.31536245 -1.6927661 182.53
7.0357981 -0.3108806 -1.4969642 182.53
7.4652419 -0.32985583 -1.4078965 182.53
7.8735762 -0.37130842 -1.2950187 182.7
11.539642 -0.54419571 -1.6235934 182.7
12.330179 -0.58147651 -1.4435209 182.7
13.110434 -0.61827236 -1.2245015 182.7
4.4714036 -0.21086603 -1.9930096 182.7
21.614462 -1.0193121 -1.0090902 182.7
4.7413054 -0.22359429 -1.9826157 182.7
12.588614 -0.59366393 -0.29259527 182.7
4.9928851 -0.23545848 -1.9518236 182.7
12.629964 -0.59561396 0 182.7
5.3315287 -0.25142851 -1.9426744 182.7
12.608585 -0.5946058 0.2930595 182.7
5.7082405 -0.26919377 -1.9309456 182.7
6.1293888 -0.28905463 -1.9147389 182.7
6.5850143 -0.31054139 -1.890321 182.7
7.1566143 -0.33749738 -1.8755802 182.7
7.2529001 -0.34203809 -1.7204332 182.7
7.4784307 -0.35267383 -1.591356 182.7
7.2266788 -0.34080151 -1.3630897 182.7
11.516118 -0.57935125 -1.6205316 182.88
12.354083 -0.62150747 -1.4465408 182.88
12.637072 -0.63574404 -1.1804707 182.88
12.62915 -0.63534552 -0.88423306 182.88
4.4707189 -0.2249123 -1.9930096 182.88
12.630283 -0.6354025 -0.58974618 182.88
4.7258344 -0.23774661 -1.9764489 182.88
12.606655 -0.63421386 -0.2930595 182.88
4.9939814 -0.2512365 -1.952551 182.88
12.62004 -0.63488722 0 182.88
5.3269587 -0.26798788 -1.9413064 182.88
12.592677 -0.63351065 0.29273453 182.88
5.6922274 -0.28636378 -1.9258238 182.88
6.0407376 -0.30389658 -1.8873343 182.88
6.5648055 -0.33026129 -1.8848082 182.88
7.1593838 -0.36017326 -1.8765932 182.88
7.4131136 -0.37293789 -1.7587061 182.88
7.2916722 -0.36682841 -1.5518528 182.88
7.6966772 -0.38720337 -1.4519627 182.88
8.9609842 -0.47746703 -1.474324 183.05
11.528193 -0.61425531 -1.62248 183.05
12.354168 -0.65826565 -1.4467731 183.05
4.473681 -0.23837061 -1.9946365 183.05
21.571922 -1.1494142 -1.0074131 183.05
4.7287941 -0.25196376 -1.9779906 183.05
14.63529 -0.77981043 -0.34027025 183.05
4.9913535 -0.26595369 -1.9518236 183.05
5.3186331 -0.2833921 -1.9385701 183.05
12.624684 -0.67267954 0.2935237 183.05
5.695137 -0.3034533 -1.9271042 183.05
5.9864273 -0.31897408 -1.8706534 183.05
6.5637965 -0.349738 -1.8848082 183.05
7.148623 -0.38089922 -1.8740608 183.05
7.3905973 -0.39379233 -1.7536337 183.05
7.2104573 -0.38419393 -1.5348041 183.05
7.5404463 -0.4017767 -1.4227087 183.05
8.9910545 -0.50582635 -1.4795119 183.22
11.544115 -0.64945859 -1.6249851 183.22
12.256961 -0.68956244 -1.4356226 183.22
12.971072 -0.72973752 -1.212054 183.22
4.4820747 -0.25215635 -1.9987038 183.22
21.516556 -1.2104965 -1.0049908 183.22
4.7335534 -0.26630422 -1.9803032 183.22
14.598974 -0.82132143 -0.33948109 183.22
4.9905424 -0.28076214 -1.9518236 183.22
70.306824 -3.9553807 0 183.22
5.3121395 -0.29885483 -1.9365181 183.22
5.7093458 -0.32120118 -1.9322262 183.22
6.1284194 -0.34477776 -1.9153346 183.22
6.5608106 -0.36910361 -1.884257 183.22
7.1474614 -0.40210792 -1.8740608 183.22
7.2630987 -0.40861353 -1.7236611 183.22
7.2561626 -0.40822333 -1.5447838 183.22
7.5078239 -0.42238149 -1.4167838 183.22
7.7778292 -0.4620882 -1.2801036 183.39999
11.543995 -0.68583971 -1.6252635 183.39999
12.359832 -0.73430932 -1.4479346 183.39999
13.032327 -0.77426285 -1.2179991 183.39999
14.520875 -0.86269891 -1.0171889 183.39999
4.4958515 -0.26710281 -2.0052116 183.39999
21.630312 -1.2850772 -1.0104877 183.39999
4.7142711 -0.28007931 -1.9725946 183.39999
14.536444 -0.86362392 -0.33808842 183.39999
4.9840565 -0.29610753 -1.9496411 183.39999
5.3036704 -0.31509608 -1.9337819 183.39999
12.61036 -0.74919343 0.2932916 183.39999
5.7064171 -0.33902365 -1.9315859 183.39999
6.1292114 -0.36414227 -1.9159304 183.39999
6.5711331 -0.39039725 -1.8875647 183.39999
7.1326432 -0.42375708 -1.8705152 183.39999
7.817389 -0.46443847 -1.855541 183.39999
7.3075714 -0.43414974 -1.5560111 183.39999
7.4534869 -0.44281873 -1.4067856 183.39999
9.1382513 -0.57012647 -1.2867945 183.57001
12.365529 -0.77147311 -1.4488639 183.57001
13.065747 -0.81515902 -1.2213432 183.57001
4.4859219 -0.27987224 -2.0011442 183.57001
12.639662 -0.78857601 -0.5905847 183.57001
4.6986837 -0.29314625 -1.9664279 183.57001
14.485924 -0.90376246 -0.33697432 183.57001
4.9534059 -0.3090381 -1.9380015 183.57001
5.3139663 -0.33153313 -1.9378861 183.57001
5.7016039 -0.35571742 -1.9303055 183.57001
6.1300097 -0.38244525 -1.9165261 183.57001
6.5565147 -0.40905449 -1.8837057 183.57001
14.586175 -0.91001707 1.3634678 183.57001
7.1332855 -0.44503865 -1.8710217 183.57001
14.530537 -0.90654588 1.7025369 183.57001
7.1419845 -0.44558135 -1.6955328 183.57001
14.514855 -0.90556753 2.0438962 183.57001
7.3570161 -0.45899698 -1.5668225 183.57001
14.522688 -0.90605617 2.3906291 183.57001
7.4462557 -0.46456453 -1.4056747 183.57001
14.490382 -0.90404063 2.7354372 183.57001
10.452747 -0.68327707 -1.4721731 183.74001
12.357239 -0.80777019 -1.4481668 183.74001
13.116922 -0.85742939 -1.2263594 183.74001
4.4960108 -0.29389605 -2.0060251 183.74001
4.7033181 -0.30744734 -1.9687405 183.74001
14.49515 -0.94752157 -0.33725286 183.74001
4.9506083 -0.32361224 -1.937274 183.74001
14.594851 -0.95403892 0 183.74001
5.31671 -0.34754369 -1.9392542 183.74001
5.7043047 -0.37288004 -1.9315859 183.74001
14.559072 -0.95170003 0.68039751 183.74001
6.130753 -0.40075618 -1.9171219 183.74001
14.539391 -0.95041353 1.0188631 183.74001
6.5552721 -0.42850623 -1.8837057 183.74001
14.533733 -0.95004374 1.3588232 183.74001
7.1396565 -0.46670637 -1.8730477 183.74001
14.521836 -0.94926608 1.70184 183.74001
7.8358569 -0.51221573 -1.8606132 183.74001
7.4512763 -0.48707637 -1.5871979 183.74001
7.4193482 -0.48498932 -1.4008608 183.74001
8.9094906 -0.60895044 -1.4671906 183.91
10.44277 -0.71374774 -1.4710597 183.91
12.352805 -0.8442958 -1.4479346 183.91
13.122268 -0.89688742 -1.2271025 183.91
14.624087 -0.99953455 -1.0250016 183.91
4.4914732 -0.3069855 -2.0043981 183.91
14.639897 -1.0006151 -0.68431056 183.91
4.7134323 -0.32215607 -1.9733655 183.91
14.502249 -0.99120706 -0.33748496 183.91
4.9477673 -0.33817253 -1.9365466 183.91
14.595947 -0.99761117 0 183.91
5.3212805 -0.36370158 -1.9413064 183.91
14.578052 -0.99638802 0.33924899 183.91
5.7107348 -0.39032018 -1.9341469 183.91
14.554191 -0.99475718 0.68030435 183.91
6.1219182 -0.41842395 -1.9147389 183.91
14.560392 -0.99518108 1.0205373 183.91
6.5558896 -0.44808528 -1.884257 183.91
14.558664 -0.99506295 1.3614242 183.91
7.144031 -0.48828387 -1.8745673 183.91
14.556611 -0.99492264 1.7062538 183.91
7.8381858 -0.53572828 -1.8615354 183.91
14.530961 -0.99316955 2.046958 183.91
7.5356746 -0.51505214 -1.605494 183.91
14.536745 -0.99356484 2.3938715 183.91
7.2727742 -0.49708325 -1.3734583 183.91
14.506331 -0.99148607 2.7395103 183.91
7.9706197 -0.56854463 -1.3128519 184.08
12.352227 -0.88108492 -1.4481668 184.08
13.071877 -0.93241757 -1.2226436 184.08
14.559365 -1.0385201 -1.0206767 184.08
4.4850755 -0.3199206 -2.0019577 184.08
21.428209 -1.528475 -1.0018232 184.08
4.7198191 -0.33666489 -1.9764489 184.08
14.505227 -1.0346584 -0.33762422 184.08
4.9653254 -0.35417685 -1.9438213 184.08
45.051537 -3.2135279 0 184.08
5.3183036 -0.3793548 -1.9406223 184.08
44.724285 -3.1901851 1.0410042 184.08
5.7076616 -0.40712774 -1.9335066 184.08
44.612045 -3.182179 2.0857263 184.08
6.1187453 -0.43645033 -1.9141431 184.08
44.653233 -3.1851168 3.1303916 184.08
6.567955 -0.46849251 -1.8881159 184.08
44.719685 -3.189857 4.1827378 184.08
7.1599202 -0.51071739 -1.8791257 184.08
7.8074441 -0.55690527 -1.8546187 184.08
7.5614324 -0.53935724 -1.6113156 184.08
9.1238823 -0.65080684 -1.7233957 184.08
8.0120926 -0.59680742 -1.3199853 184.25999
9.4072313 -0.70072901 -1.325763 184.25999
12.321665 -0.91782033 -1.4449147 184.25999
13.138389 -0.97865671 -1.2291461 184.25999
4.4858699 -0.33414501 -2.0027711 184.25999
21.399393 -1.5940052 -1.0007051 184.25999
4.7205782 -0.35162804 -1.9772197 184.25999
14.637492 -1.0903225 -0.34078088 184.25999
4.9660459 -0.36991248 -1.9445487 184.25999
5.3002176 -0.39480439 -1.9344659 184.25999
44.733978 -3.3321598 1.0414684 184.25999
5.7101331 -0.42533833 -1.934787 184.25999
44.689487 -3.3288457 2.0898256 184.25999
6.1287675 -0.45652169 -1.9177176 184.25999
44.730549 -3.3319039 3.1365302 184.25999
6.5798712 -0.49012366 -1.8919748 184.25999
44.804764 -3.3374324 4.1916556 184.25999
7.169857 -0.53407073 -1.8821647 184.25999
7.7649002 -0.57839453 -1.8449352 184.25999
7.6299324 -0.56834096 -1.6262852 184.25999
9.1257124 -0.67975914 -1.7241364 184.25999
12.309151 -0.95145983 -1.4437531 184.42
13.127663 -1.0147283 -1.228403 184.42
14.79165 -1.1433494 -1.0374182 184.42
4.483098 -0.34652978 -2.0019577 184.42
21.380917 -1.6526796 -1.000053 184.42
4.7269378 -0.36537787 -1.9803032 184.42
34.043247 -2.6314392 -0.79274148 184.42
4.9724231 -0.38435316 -1.9474586 184.42
12.614372 -0.97505248 0 184.42
5.3084636 -0.41032803 -1.9378861 184.42
12.654831 -0.97817981 0.29468426 184.42
5.7051449 -0.4409903 -1.9335066 184.42
6.1312757 -0.4739289 -1.9189091 184.42
6.57656 -0.50834805 -1.8914236 184.42
7.1702666 -0.55423975 -1.8826712 184.42
7.8137035 -0.60397542 -1.8569243 184.42
7.7707005 -0.60065144 -1.6566404 184.42
9.1257381 -0.70539171 -1.7245066 184.42
10.41565 -0.8380233 -1.4685546 184.60001
12.381344 -0.99617928 -1.4525807 184.60001
13.134335 -1.0567635 -1.2293319 184.60001
14.90333 -1.1990935 -1.0455101 184.60001
4.481987 -0.36061212 -2.0019577 184.60001
21.36367 -1.7188801 -0.99949402 184.60001
4.7220879 -0.37993017 -1.9787614 184.60001
34.004917 -2.7359707 -0.79204518 184.60001
4.9897614 -0.40146667 -1.9547335 184.60001
49.179077 -3.9568546 0 184.60001
5.301528 -0.42655084 -1.9358341 184.60001
12.673618 -1.0196952 0.29519489 184.60001
5.7018428 -0.45875937 -1.9328663 184.60001
87.543655 -7.0435948 4.0957079 184.60001
6.1278534 -0.49303541 -1.9183134 184.60001
6.5710979 -0.52869797 -1.890321 184.60001
7.1492043 -0.57521135 -1.8776063 184.60001
7.8350458 -0.63039279 -1.8624578 184.60001
9.2553215 -0.77231103 -1.5258783 184.77
10.440749 -0.87122917 -1.4724514 184.77
12.390211 -1.0339022 -1.4539745 184.77
13.115266 -1.0944043 -1.2278455 184.77
14.869883 -1.2408185 -1.0434173 184.77
4.4863596 -0.37436464 -2.0043981 184.77
21.336576 -1.7804322 -0.99846917 184.77
4.7227788 -0.39409265 -1.9795322 184.77
34.012592 -2.8381834 -0.79241651 184.77
4.9662695 -0.41441074 -1.9460037 184.77
12.596222 -1.0510927 0 184.77
5.3077307 -0.442904 -1.9385701 184.77
12.64862 -1.055465 0.29468426 184.77
5.6947918 -0.47520235 -1.9309456 184.77
6.1225586 -0.5108974 -1.9171219 184.77
6.5752478 -0.54867208 -1.8919748 184.77
7.1416817 -0.59593821 -1.8760867 184.77
7.8370194 -0.6539607 -1.86338 184.77
8.4316721 -0.70358157 -1.7984362 184.77
9.2431583 -0.79891896 -1.5242571 184.94
11.545072 -0.99788153 -1.6286036 184.94
12.402922 -1.0720285 -1.4558328 184.94
13.15164 -1.1367429 -1.2315613 184.94
14.74091 -1.2741091 -1.034628 184.94
4.4761276 -0.38688758 -2.0003309 184.94
21.297363 -1.8408066 -0.99688536 184.94
4.7179112 -0.4077858 -1.9779906 184.94
33.970158 -2.936161 -0.79162735 184.94
4.979867 -0.43042755 -1.9518236 184.94
12.662787 -1.0944897 0 184.94
5.300776 -0.45816487 -1.9365181 184.94
90.78894 -7.8472104 2.1157103 184.94
5.6990199 -0.49258652 -1.9328663 184.94
6.1038966 -0.52758145 -1.9117601 184.94
6.5467758 -0.56586105 -1.884257 184.94
7.1360269 -0.61679214 -1.8750738 184.94
7.8408613 -0.67771345 -1.8647633 184.94
8.4392929 -0.72943801 -1.8005153 184.94
9.2130833 -0.82548749 -1.5197177 185.12
11.530045 -1.0330859 -1.6269336 185.12
12.403449 -1.1113427 -1.4562974 185.12
13.165854 -1.1796538 -1.2332333 185.12
14.766642 -1.3230834 -1.0367208 185.12
4.4821692 -0.40160003 -2.0035846 185.12
21.271576 -1.9059222 -0.99595368 185.12
4.7239594 -0.42326432 -1.981074 185.12
33.950806 -3.0419745 -0.79139525 185.12
4.9840565 -0.44656888 -1.954006 185.12
44.161091 -3.9568107 0 185.12
5.3011823 -0.47498319 -1.9372021 185.12
12.649901 -1.1334246 0.29486993 185.12
5.6880083 -0.5096426 -1.9296652 185.12
6.1060123 -0.54709554 -1.9129516 185.12
6.5564547 -0.58745492 -1.8875647 185.12
7.1321268 -0.63903487 -1.8745673 185.12
7.8425703 -0.70269018 -1.8656856 185.12
8.4350109 -0.75577259 -1.8000994 185.12
9.1105661 -0.816302 -1.7233957 185.12
9.236289 -0.85357296 -1.5239328 185.28
11.499504 -1.0627283 -1.6230367 185.28
12.396341 -1.1456096 -1.4558328 185.28
13.150612 -1.2153156 -1.2321186 185.28
14.552303 -1.344853 -1.0219324 185.28
4.4792109 -0.4139469 -2.0027711 185.28
21.274128 -1.9660515 -0.99632633 185.28
4.7154083 -0.43577513 -1.9779906 185.28
12.69248 -1.1729772 -0.29593763 185.28
4.9920654 -0.46134242 -1.9576434 185.28
12.614248 -1.1657475 0 185.28
5.2979641 -0.48961207 -1.9365181 185.28
12.636732 -1.1678253 0.29463783 185.28
5.69977 -0.52674502 -1.9341469 185.28
6.1139665 -0.56502301 -1.9159304 185.28
6.535645 -0.60399252 -1.8820518 185.28
7.1360946 -0.65948313 -1.8760867 185.28
7.8405776 -0.72458804 -1.8656856 185.28
8.4387121 -0.77986473 -1.8013469 185.28
9.1728354 -0.84770882 -1.7356157 185.28
9.2610664 -0.88521433 -1.5284722 185.46001
11.529626 -1.1020534 -1.6277686 185.46001
12.398614 -1.1851152 -1.4565297 185.46001
13.128888 -1.2549181 -1.2304466 185.46001
4.4778886 -0.42801669 -2.0027711 185.46001
21.220116 -2.0283139 -0.99409032 185.46001
4.7085047 -0.45006004 -1.9756781 185.46001
33.892349 -3.239583 -0.79046685 185.46001
4.9980097 -0.47773224 -1.9605533 185.46001
12.666269 -1.210699 0 185.46001
5.3001413 -0.50661129 -1.9378861 185.46001
12.646935 -1.2088507 0.29496276 185.46001
5.694315 -0.54428822 -1.9328663 185.46001
85.57653 -8.1797895 4.0089698 185.46001
6.1045589 -0.58350116 -1.9135474 185.46001
6.5394568 -0.62507063 -1.8837057 185.46001
7.1686559 -0.68521231 -1.8852038 185.46001
8.4556942 -0.80823326 -1.8055052 185.46001
9.1916485 -0.87857902 -1.7396891 185.46001
11.524334 -1.1360632 -1.6274903 185.63
12.400973 -1.222482 -1.4572266 185.63
13.105289 -1.291913 -1.2285887 185.63
14.335339 -1.4131707 -1.0072834 185.63
4.4747806 -0.4411217 -2.0019577 185.63
21.223946 -2.0922463 -0.99455619 185.63
4.6979661 -0.4631232 -1.9718238 185.63
33.8806 -3.3399332 -0.79042041 185.63
5.0039864 -0.49329057 -1.9634632 185.63
12.630776 -1.2451358 0 185.63
5.293004 -0.52178174 -1.9358341 185.63
12.633343 -1.2453889 0.29473066 185.63
5.6945605 -0.56136703 -1.9335066 185.63
85.59761 -8.4381714 4.0111127 185.63
6.0534005 -0.59674132 -1.8980578 185.63
85.660599 -8.4443798 6.0190072 185.63
6.5605326 -0.64673412 -1.890321 185.63
7.1531129 -0.70515043 -1.8816583 185.63
7.7004337 -0.75910503 -1.8334073 185.63
8.4824619 -0.83619702 -1.8117424 185.63
9.196825 -0.90661854 -1.7411703 185.63
9.4303961 -0.95790476 -1.5573297 185.8
10.685464 -1.0853899 -1.5094714 185.8
12.397292 -1.259271 -1.4572266 185.8
13.063756 -1.326968 -1.2250588 185.8
14.350931 -1.4577144 -1.0086786 185.8
4.4716344 -0.45421204 -2.0011442 185.8
21.156029 -2.1489511 -0.99166799 185.8
4.6984072 -0.47724679 -1.9725946 185.8
33.834736 -3.4368069 -0.78958482 185.8
4.9969406 -0.50757068 -1.9612807 185.8
12.583251 -1.2781601 0 185.8
5.3007812 -0.53843373 -1.9392542 185.8
12.629592 -1.2828672 0.29473066 185.8
5.6834445 -0.57730323 -1.9303055 185.8
85.562263 -8.6910973 4.0106468 185.8
6.0516033 -0.61469948 -1.8980578 185.8
85.700668 -8.7051563 6.0236111 185.8
6.5815368 -0.66852814 -1.8969363 185.8
7.1336651 -0.72461128 -1.8770998 185.8
7.5606809 -0.76798594 -1.8006679 185.8
8.470212 -0.86037278 -1.8096634 185.8
9.1686745 -0.93132001 -1.7363564 185.8
9.4039593 -0.98341787 -1.5534388 185.97
12.385598 -1.2952224 -1.4562974 185.97
13.111256 -1.3711081 -1.2298893 185.97
14.412025 -1.5071359 -1.0132825 185.97
4.4666324 -0.46709758 -1.9995173 185.97
21.145586 -2.211297 -0.99148166 185.97
4.702477 -0.49176097 -1.9749072 185.97
33.836319 -3.538429 -0.78986335 185.97
4.9935594 -0.52220088 -1.9605533 185.97
12.664937 -1.3244343 0 185.97
5.2860761 -0.55279076 -1.9344659 185.97
12.635673 -1.3213741 0.29496276 185.97
5.6911292 -0.59514916 -1.9335066 185.97
6.0611463 -0.63384366 -1.9016324 185.97
6.5757003 -0.68765306 -1.8958337 185.97
7.127635 -0.74537158 -1.8760867 185.97
7.6086936 -0.7956782 -1.8126569 185.97
7.510345 -0.78539342 -1.6050782 185.97
9.1580515 -0.95770222 -1.7348751 185.97
9.3733521 -1.0099964 -1.5488994 186.14999
10.629406 -1.1453385 -1.5025128 186.14999
12.373568 -1.3332752 -1.4553683 186.14999
13.17618 -1.4197582 -1.2363917 186.14999
14.456811 -1.5577486 -1.0167704 186.14999
4.4578767 -0.48034462 -1.9962634 186.14999
21.128603 -2.2766469 -0.99101579 186.14999
4.6972389 -0.50613636 -1.9733655 186.14999
12.681158 -1.3664187 -0.29612333 186.14999
4.969667 -0.53549099 -1.9518236 186.14999
12.646794 -1.362716 0 186.14999
5.2787075 -0.56879067 -1.9324138 186.14999
12.631459 -1.3610636 0.29496276 186.14999
5.6892314 -0.61302537 -1.9335066 186.14999
6.0667176 -0.65370029 -1.9040154 186.14999
6.5696845 -0.70789587 -1.8947312 186.14999
7.0983272 -0.76485813 -1.8689957 186.14999
7.6796832 -0.82750028 -1.8301795 186.14999
8.4861937 -0.91440338 -1.8142374 186.14999
9.1999426 -0.99131113 -1.7433921 186.14999
10.310095 -1.1400665 -1.7042109 186.31
10.687191 -1.1817648 -1.5111415 186.31
12.379668 -1.3689152 -1.4565297 186.31
13.168205 -1.4561098 -1.2360201 186.31
14.50793 -1.6042533 -1.0206767 186.31
4.458334 -0.49299228 -1.9970769 186.31
21.07649 -2.3305898 -0.988873 186.31
4.6958075 -0.51925153 -1.9733655 186.31
33.774979 -3.7347593 -0.78893489 186.31
4.9922247 -0.55202866 -1.9612807 186.31
5.2770987 -0.58352941 -1.9324138 186.31
12.61966 -1.3954529 0.2947771 186.31
5.674314 -0.62745255 -1.9290249 186.31
6.0629711 -0.67042935 -1.9034196 186.31
6.5581274 -0.72518259 -1.8919748 186.31
7.1153941 -0.7868039 -1.8740608 186.31
7.8514314 -0.86819321 -1.87168 186.31
8.5030518 -0.94024783 -1.8183956 186.31
9.1854172 -1.0157022 -1.7411703 186.31
10.253518 -1.1664281 -1.6954564 186.49001
10.65194 -1.2117521 -1.506688 186.49001
12.36149 -1.4062285 -1.4549036 186.49001
13.189287 -1.5003977 -1.2384353 186.49001
14.63167 -1.6644814 -1.0297451 186.49001
4.4676557 -0.50823522 -2.0019577 186.49001
21.059139 -2.3956628 -0.98840714 186.49001
4.7014875 -0.53483564 -1.9764489 186.49001
33.786919 -3.84356 -0.78949195 186.49001
4.9849124 -0.56707776 -1.9590983 186.49001
12.664318 -1.4406779 0 186.49001
5.2696376 -0.59946769 -1.9303617 186.49001
12.627133 -1.4364477 0.29505563 186.49001
5.6911411 -0.64741749 -1.9354273 186.49001
6.0760107 -0.69119978 -1.9081856 186.49001
6.5653682 -0.74686849 -1.8947312 186.49001
7.0878963 -0.80631065 -1.8674762 186.49001
7.8486652 -0.89285487 -1.87168 186.49001
8.4942245 -0.96629292 -1.8171482 186.49001
9.1196909 -1.0374452 -1.7293205 186.49001
10.261983 -1.1964279 -1.6974018 186.64999
12.359488 -1.4409728 -1.4551359 186.64999
13.169223 -1.5353785 -1.236949 186.64999
14.583367 -1.7002512 -1.0266758 186.64999
4.4589596 -0.51986289 -1.9987038 186.64999
21.018633 -2.4505284 -0.98682332 186.64999
4.7018085 -0.54817629 -1.9772197 186.64999
33.72839 -3.9323385 -0.78837782 186.64999
4.9907112 -0.58185899 -1.9620082 186.64999
5.2567425 -0.6128751 -1.9262575 186.64999
12.633003 -1.4728614 0.29528773 186.64999
5.689311 -0.66330761 -1.9354273 186.64999
6.0816422 -0.70904887 -1.9105686 186.64999
6.5651665 -0.76542217 -1.8952825 186.64999
7.1029129 -0.82811713 -1.8720347 186.64999
7.8442082 -0.91454357 -1.8712189 186.64999
8.4914932 -0.99000943 -1.8171482 186.64999
9.0132914 -1.0508451 -1.7096945 186.64999
10.271675 -1.2320967 -1.6996715 186.84
13.144287 -1.576669 -1.2350912 186.84
14.660848 -1.7585819 -1.0325353 186.84
4.4626536 -0.5352993 -2.0011442 186.84
21.010391 -2.5202153 -0.98682332 186.84
4.694468 -0.56310564 -1.9749072 186.84
33.675461 -4.0394015 -0.78744942 186.84
4.9869046 -0.59818369 -1.9612807 186.84
5.2546811 -0.63030374 -1.9262575 186.84
12.637976 -1.5159365 0.29551983 186.84
5.6833177 -0.68171906 -1.9341469 186.84
6.0697794 -0.7280755 -1.9075899 186.84
6.5606833 -0.78695983 -1.8947312 186.84
7.1116538 -0.85304928 -1.8750738 186.84
7.8314714 -0.93939203 -1.8689134 186.84
8.4765091 -1.0167649 -1.8146533 186.84
9.1639204 -1.0992205 -1.7389485 186.84
10.238592 -1.258955 -1.6948079 187.00999
13.163269 -1.6185783 -1.2373205 187.00999
4.4537916 -0.54764593 -1.9978904 187.00999
20.992907 -2.5813241 -0.98635745 187.00999
4.6817865 -0.57568055 -1.9702821 187.00999
33.691109 -4.1427174 -0.78809929 187.00999
4.9777117 -0.612068 -1.9583708 187.00999
34.396942 -4.2295074 0 187.00999
5.2770371 -0.64887363 -1.93515 187.00999
12.617546 -1.5514753 0.29514846 187.00999
5.6756282 -0.69788504 -1.9322262 187.00999
6.0600128 -0.74514967 -1.9052069 187.00999
6.5602274 -0.8066569 -1.8952825 187.00999
7.1090918 -0.87414616 -1.8750738 187.00999
7.8286495 -0.96262425 -1.8689134 187.00999
9.2132883 -1.1328819 -1.7489467 187.00999
10.223063 -1.287848 -1.6928624 187.17999
11.487422 -1.4471252 -1.6272119 187.17999
12.249058 -1.543072 -1.4437531 187.17999
13.190021 -1.6616095 -1.2402931 187.17999
4.4575858 -0.56154329 -2.0003309 187.17999
20.967316 -2.6413527 -0.98551899 187.17999
4.6855507 -0.5902611 -1.9725946 187.17999
33.62709 -4.2361646 -0.78689235 187.17999
4.9795704 -0.62730014 -1.9598258 187.17999
46.83186 -5.8996325 0 187.17999
5.2955999 -0.66711193 -1.9426744 187.17999
5.6772923 -0.71519554 -1.9335066 187.17999
6.057775 -0.76312679 -1.9052069 187.17999
6.5463605 -0.82467616 -1.8919748 187.17999
7.1064668 -0.89523542 -1.8750738 187.17999
7.8257589 -0.98584807 -1.8689134 187.17999
9.2332869 -1.163161 -1.7533903 187.17999
10.213326 -1.3174173 -1.6918896 187.35001
11.483078 -1.4812027 -1.6272119 187.35001
11.550936 -1.4899557 -1.3619831 187.35001
13.196882 -1.7022663 -1.2414079 187.35001
4.4540877 -0.57453299 -1.9995173 187.35001
20.945517 -2.7017632 -0.9848668 187.35001
4.6819487 -0.60392469 -1.9718238 187.35001
33.594543 -4.3333616 -0.78642815 187.35001
4.9721441 -0.64135706 -1.9576434 187.35001
35.073421 -4.5241218 0 187.35001
5.2935972 -0.68282133 -1.9426744 187.35001
5.6657495 -0.73082525 -1.9303055 187.35001
6.076313 -0.78378385 -1.9117601 187.35001
6.5782061 -0.84852302 -1.9018978 187.35001
7.088428 -0.91433662 -1.8710217 187.35001
7.8363104 -1.010806 -1.8721412 187.35001
9.2356424 -1.1913059 -1.7545012 187.35001
10.197867 -1.3443854 -1.6899443 187.50999
11.486752 -1.5142992 -1.6283252 187.50999
11.470512 -1.5121584 -1.0794042 187.50999
4.4506545 -0.58673006 -1.9987038 187.50999
20.955717 -2.7625933 -0.98570532 187.50999
4.6857328 -0.61772043 -1.9741364 187.50999
33.58033 -4.426897 -0.78638172 187.50999
4.9758749 -0.65596986 -1.9598258 187.50999
12.602958 -1.6614486 0 187.50999
5.2898064 -0.69735551 -1.9419904 187.50999
12.611456 -1.6625689 0.29533416 187.50999
5.669322 -0.74738705 -1.9322262 187.50999
6.0722079 -0.8004995 -1.9111644 187.50999
6.585341 -0.86814588 -1.9046541 187.50999
7.0973563 -0.93564487 -1.8740608 187.50999
7.8604689 -1.0362461 -1.8785969 187.50999
8.1032906 -1.0682572 -1.7373101 187.50999
9.222537 -1.2158076 -1.7526498 187.50999
10.203372 -1.3777367 -1.6915655 187.69
11.464272 -1.5479931 -1.6258202 187.69
11.539922 -1.5582078 -1.3617508 187.69
14.413679 -1.9462442 -1.0170494 187.69
4.4397359 -0.59948683 -1.9946365 187.69
20.915257 -2.8241365 -0.98421466 187.69
4.6782823 -0.63169718 -1.9718238 187.69
33.271015 -4.4925051 -0.7794649 187.69
4.9700971 -0.6711002 -1.9583708 187.69
34.049004 -4.5975547 0 187.69
5.2801394 -0.71296453 -1.9392542 187.69
5.6556797 -0.76367277 -1.9283848 187.69
6.0810151 -0.82110482 -1.9147389 187.69
6.5844865 -0.88908726 -1.9052054 187.69
7.1461515 -0.96492761 -1.8877363 187.69
7.8533173 -1.0604146 -1.8776746 187.69
8.4740639 -1.1442324 -1.817564 187.69
9.2303581 -1.246353 -1.7548716 187.69
10.19362 -1.4054159 -1.6905928 187.85001
11.18719 -1.5424016 -1.5871301 187.85001
11.155731 -1.5380641 -1.3169166 187.85001
4.4416647 -0.61238164 -1.9962634 187.85001
20.891457 -2.8803489 -0.98346931 187.85001
4.687469 -0.64627123 -1.9764489 187.85001
32.885967 -4.5340571 -0.77073765 187.85001
4.9608212 -0.68395889 -1.9554609 187.85001
34.028107 -4.6915269 0 187.85001
5.272543 -0.72693658 -1.9372021 187.85001
96.174065 -13.259722 2.2540002 187.85001
5.6441402 -0.77816945 -1.9251835 187.85001
6.0673509 -0.83651841 -1.9111644 187.85001
6.5743599 -0.90642083 -1.9030004 187.85001
7.1683459 -0.98831493 -1.8943208 187.85001
7.858037 -1.0834042 -1.8795191 187.85001
8.480525 -1.1692278 -1.8196431 187.85001
9.2248945 -1.2718557 -1.7545012 187.85001
10.194766 -1.4400395 -1.6915655 188.03999
11.142793 -1.573951 -1.5815631 188.03999
13.210917 -1.8660794 -1.2447519 188.03999
4.4378004 -0.62685186 -1.99545 188.03999
20.873877 -2.948494 -0.98309666 188.03999
4.6889548 -0.66232812 -1.9779906 188.03999
32.516365 -4.5930281 -0.76242816 188.03999
4.9124088 -0.69389164 -1.937274 188.03999
33.70937 -4.7615438 0 188.03999
5.2756858 -0.74520552 -1.9392542 188.03999
96.177086 -13.585285 2.2551143 188.03999
5.6546612 -0.79873693 -1.9296652 188.03999
6.0607624 -0.85609978 -1.9099729 188.03999
6.5808358 -0.92956167 -1.9057567 188.03999
7.182271 -1.0145161 -1.8988794 188.03999
7.8601823 -1.1102729 -1.8809024 188.03999
8.4824123 -1.1981647 -1.8208905 188.03999
9.2342491 -1.3043638 -1.7570934 188.03999
10.188495 -1.4699998 -1.6912413 188.21001
11.098869 -1.6013489 -1.5759962 188.21001
11.12422 -1.6050065 -1.3143613 188.21001
13.219119 -1.9072593 -1.2460524 188.21001
4.4431543 -0.64105994 -1.9987038 188.21001
20.863058 -3.0101297 -0.9830035 188.21001
4.6814895 -0.67544699 -1.9756781 188.21001
32.181999 -4.6432304 -0.75490791 188.21001
4.9011087 -0.70713377 -1.9336365 188.21001
33.803967 -4.8772488 0 188.21001
5.2697315 -0.76031876 -1.9378861 188.21001
96.191765 -13.878583 2.2564142 188.21001
5.6635184 -0.8171345 -1.9335066 188.21001
6.0600853 -0.87435132 -1.9105686 188.21001
6.5932717 -0.95127964 -1.9101669 188.21001
7.1945491 -1.0380322 -1.9029315 188.21001
7.8530011 -1.1330339 -1.8799802 188.21001
8.4923735 -1.2252828 -1.8238014 188.21001
9.2283936 -1.3314759 -1.756723 188.21001
10.174326 -1.498785 -1.68962 188.38
11.143054 -1.6414888 -1.5829549 188.38
11.046694 -1.6272939 -1.3057661 188.38
11.759475 -1.732294 -1.1089439 188.38
14.412882 -2.1231687 -1.0187235 188.38
4.4376178 -0.65370762 -1.9970769 188.38
20.852058 -3.071727 -0.98291028 188.38
4.677639 -0.68906534 -1.9749072 188.38
31.889168 -4.6976089 -0.74836242 188.38
4.8916168 -0.72058648 -1.9307266 188.38
34.032719 -5.0133767 0 188.38
5.2674522 -0.77595097 -1.9378861 188.38
12.66586 -1.8658142 0.29723743 188.38
5.6610694 -0.8339349 -1.9335066 188.38
6.0801301 -0.89566702 -1.9177176 188.38
6.5923219 -0.97111821 -1.9107182 188.38
7.1914377 -1.0593742 -1.9029315 188.38
7.857306 -1.1574637 -1.8818247 188.38
8.4945068 -1.25133 -1.8250488 188.38
9.2185688 -1.3579919 -1.7556121 188.38
10.155907 -1.5286849 -1.6873503 188.56
10.912618 -1.6425864 -1.550945 188.56
11.019919 -1.6587377 -1.3032109 188.56
14.402195 -2.1678438 -1.0184445 188.56
4.4391556 -0.66818947 -1.9987038 188.56
20.82255 -3.1342468 -0.98197865 188.56
4.6681514 -0.70265836 -1.9718238 188.56
31.573719 -4.7525315 -0.74130636 188.56
4.8930135 -0.73650497 -1.9321816 188.56
5.2724223 -0.79361427 -1.9406223 188.56
90.140015 -13.568033 2.1163602 188.56
5.6546741 -0.85115147 -1.9322262 188.56
34.961735 -5.2625017 1.6487738 188.56
6.0810623 -0.9153322 -1.9189091 188.56
6.5835352 -0.99096531 -1.9090643 188.56
7.1823344 -1.0810976 -1.9014119 188.56
7.8594041 -1.1830113 -1.883208 188.56
8.4944029 -1.2785925 -1.8258805 188.56
9.2200871 -1.3878238 -1.756723 188.56
10.089444 -1.5457042 -1.6769747 188.71001
10.820184 -1.6576535 -1.5384195 188.71001
12.264359 -1.8789015 -1.4509546 188.71001
13.081901 -2.0041487 -1.2347196 188.71001
14.38661 -2.2040305 -1.0177469 188.71001
4.4283609 -0.67842543 -1.9946365 188.71001
20.810324 -3.1881444 -0.98179233 188.71001
4.666296 -0.71487713 -1.9718238 188.71001
31.466301 -4.8206415 -0.7390781 188.71001
4.9555216 -0.75918651 -1.9576434 188.71001
33.959789 -5.2026439 0 188.71001
5.2628956 -0.80627632 -1.9378861 188.71001
90.157547 -13.812147 2.1176136 188.71001
5.6524262 -0.86595243 -1.9322262 188.71001
90.119484 -13.806316 4.2516694 188.71001
6.0767579 -0.93096012 -1.9183134 188.71001
34.413479 -5.2721496 2.4345009 188.71001
6.5847192 -1.0087798 -1.9101669 188.71001
7.177567 -1.0996041 -1.9009054 188.71001
7.846662 -1.2021096 -1.8809024 188.71001
8.4929609 -1.3011227 -1.8262963 188.71001
9.2203083 -1.4125524 -1.7574637 188.71001
10.131334 -1.5847131 -1.6847564 188.89
11.051688 -1.728672 -1.5720993 188.89
11.094575 -1.7353803 -1.3131998 188.89
12.886666 -2.0156939 -1.2168844 188.89
14.377644 -2.248908 -1.0176075 188.89
4.4352336 -0.69374597 -1.9987038 188.89
20.77652 -3.2498012 -0.98067433 188.89
4.6603804 -0.72896278 -1.9702821 188.89
31.46483 -4.9216347 -0.73940307 188.89
4.9549527 -0.7750389 -1.9583708 188.89
12.6324 -1.9759222 0 188.89
5.2659073 -0.82367748 -1.9399383 188.89
12.61912 -1.973845 0.29654112 188.89
5.657166 -0.88487703 -1.934787 188.89
90.156593 -14.102025 4.2554893 188.89
6.0738034 -0.95004618 -1.9183134 188.89
6.5834169 -1.0297585 -1.9107182 188.89
7.1778998 -1.1227456 -1.9019184 188.89
7.8159285 -1.2225442 -1.8744467 188.89
8.5023603 -1.3299139 -1.8292071 188.89
9.2119417 -1.4409044 -1.756723 188.89
10.109048 -1.6119695 -1.6818383 189.06
11.412251 -1.8197756 -1.62415 189.06
13.179538 -2.101584 -1.2451235 189.06
14.329533 -2.2849598 -1.0146776 189.06
4.4241343 -0.70546395 -1.9946365 189.06
20.768759 -3.3117466 -0.98076749 189.06
4.6618419 -0.74336839 -1.9718238 189.06
31.436268 -5.0127668 -0.7390781 189.06
4.9563107 -0.79032379 -1.9598258 189.06
34.024151 -5.425426 0 189.06
5.2671518 -0.83989 -1.9413064 189.06
34.633007 -5.5225134 0.81423467 189.06
5.6601291 -0.90255332 -1.9367077 189.06
90.130142 -14.37198 4.2562346 189.06
6.0690722 -0.96776265 -1.9177176 189.06
33.976734 -5.4178648 2.4059007 189.06
6.5708399 -1.0477736 -1.9079617 189.06
7.1325026 -1.1373352 -1.8907753 189.06
7.827641 -1.2481806 -1.8781357 189.06
8.5176964 -1.3582156 -1.8333653 189.06
9.1979208 -1.4666829 -1.7548716 189.06
10.076663 -1.6392834 -1.6772989 189.24001
11.36738 -1.8492589 -1.6185832 189.24001
12.26214 -1.9948195 -1.4528129 189.24001
13.102113 -2.1314671 -1.2384353 189.24001
4.4327164 -0.72111952 -1.9995173 189.24001
20.756281 -3.3766563 -0.98067433 189.24001
4.664948 -0.75889927 -1.9741364 189.24001
31.483517 -5.1217756 -0.74056363 189.24001
4.9519644 -0.80559146 -1.9590983 189.24001
34.028652 -5.5358214 0 189.24001
5.2607775 -0.85582954 -1.9399383 189.24001
12.6088 -2.0512145 0.29658753 189.24001
5.6572657 -0.9203307 -1.9367077 189.24001
34.695683 -5.6443348 1.6392708 189.24001
6.0697708 -0.98743755 -1.9189091 189.24001
6.5618229 -1.0674851 -1.9063079 189.24001
34.630383 -5.6337113 3.2733259 189.24001
7.1250749 -1.1591157 -1.8897623 189.24001
7.8332858 -1.2743282 -1.8804413 189.24001
8.5172491 -1.3855962 -1.8341969 189.24001
9.191328 -1.4952562 -1.7545012 189.24001
10.059782 -1.6689941 -1.6753534 189.42
11.431852 -1.8966309 -1.6286036 189.42
12.246015 -2.0317066 -1.4516515 189.42
13.12089 -2.1768551 -1.2408504 189.42
4.4322314 -0.73534077 -2.0003309 189.42
20.712065 -3.4362886 -0.97909045 189.42
4.6588998 -0.77294677 -1.9725946 189.42
31.479105 -5.2226224 -0.74084216 189.42
4.9420576 -0.81992483 -1.9561884 189.42
33.963741 -5.6348419 0 189.42
5.2580628 -0.87235248 -1.9399383 189.42
90.192497 -14.963619 2.1226273 189.42
5.6524773 -0.93778878 -1.9360676 189.42
90.162224 -14.958596 4.262104 189.42
6.0572214 -1.004939 -1.9159304 189.42
34.438015 -5.7135277 2.4410582 189.42
6.5811963 -1.0918703 -1.9129232 189.42
34.59483 -5.7395444 3.2716539 189.42
7.1710248 -1.1897274 -1.9029315 189.42
7.8292437 -1.2989309 -1.8804413 189.42
8.5205736 -1.4136277 -1.8358603 189.42
9.2001572 -1.5263759 -1.7570934 189.42
10.047002 -1.6975194 -1.6740564 189.59
11.424222 -1.9302115 -1.6283252 189.59
12.24385 -2.0686941 -1.452116 189.59
13.096702 -2.2127903 -1.2391784 189.59
4.4264269 -0.74787945 -1.9987038 189.59
20.709658 -3.4990585 -0.97946316 189.59
4.6547661 -0.78645915 -1.9718238 189.59
31.485159 -5.3196635 -0.7413528 189.59
4.9469509 -0.83582604 -1.9590983 189.59
34.136189 -5.7675762 0 189.59
5.2498922 -0.88701028 -1.9378861 189.59
90.218681 -15.243152 2.1242983 189.59
5.6403284 -0.9529776 -1.9328663 189.59
90.164726 -15.234035 4.2643399 189.59
6.0429182 -1.0209982 -1.9123559 189.59
34.613701 -5.8482556 2.4547303 189.59
6.5779276 -1.1113923 -1.9129232 189.59
34.363625 -5.8060031 3.2514036 189.59
7.1502934 -1.2080979 -1.8983729 189.59
7.8330307 -1.3234518 -1.8822858 189.59
8.508626 -1.4375988 -1.8341969 189.59
9.1917124 -1.5530117 -1.7563528 189.59
10.042222 -1.7255694 -1.6740564 189.75
11.43245 -1.9644543 -1.6302737 189.75
12.243899 -2.1038866 -1.4528129 189.75
13.1572 -2.2608204 -1.2454951 189.75
4.4333248 -0.76178449 -2.0027711 189.75
20.721464 -3.5605989 -0.98048794 189.75
4.6598272 -0.80070478 -1.9749072 189.75
31.497768 -5.4123063 -0.74200267 189.75
4.9445977 -0.84963727 -1.9590983 189.75
12.638771 -2.1717381 0 189.75
5.2381334 -0.90007591 -1.9344659 189.75
12.643249 -2.1725073 0.29784092 189.75
5.6507168 -0.97097075 -1.937348 189.75
90.182869 -15.496251 4.2672281 189.75
6.0494514 -1.0394858 -1.9153346 189.75
34.685719 -5.9600964 2.4610083 189.75
6.578588 -1.1304082 -1.9140258 189.75
7.1297302 -1.2251117 -1.8938143 189.75
7.8273864 -1.344991 -1.8818247 189.75
8.51229 -1.462679 -1.8358603 189.75
9.2105837 -1.5826678 -1.7607964 189.75
10.028975 -1.755748 -1.6727595 189.92999
11.355991 -1.9880654 -1.6202532 189.92999
12.227446 -2.1406288 -1.4516515 189.92999
13.102956 -2.2939022 -1.2410363 189.92999
4.42731 -0.7750783 -2.0011442 189.92999
20.657043 -3.6163776 -0.97797245 189.92999
4.6591067 -0.81565833 -1.9756781 189.92999
31.462883 -5.5081296 -0.7415849 189.92999
4.9308934 -0.86323941 -1.9547335 189.92999
34.130913 -5.975215 0 189.92999
5.2482386 -0.91879618 -1.9392542 189.92999
5.6457725 -0.98839146 -1.9367077 189.92999
6.0367527 -1.0568395 -1.9123559 189.92999
6.5787916 -1.1517328 -1.9151284 189.92999
7.1201286 -1.2465034 -1.8922949 189.92999
7.8173714 -1.3685679 -1.8804413 189.92999
8.521142 -1.4917754 -1.838771 189.92999
9.2036304 -1.611257 -1.7604262 189.92999
10.006546 -1.7806355 -1.6698413 190.09
11.430342 -2.0339956 -1.6316655 190.09
12.217508 -2.1740699 -1.4511868 190.09
13.049445 -2.3221104 -1.2365774 190.09
4.4215307 -0.78679842 -1.9995173 190.09
20.644897 -3.6736987 -0.97787929 190.09
4.6531768 -0.82801914 -1.9741364 190.09
31.482813 -5.6022744 -0.74242049 190.09
4.9321322 -0.87765843 -1.9561884 190.09
5.2382507 -0.93213141 -1.9365181 190.09
5.6485868 -1.0051494 -1.9386284 190.09
6.0318985 -1.0733587 -1.9117601 190.09
6.5793352 -1.1707734 -1.9162309 190.09
7.1261444 -1.2680765 -1.8948274 190.09
6.9072433 -1.2291236 -1.6623323 190.09
8.5284996 -1.5176214 -1.8412659 190.09
9.2029648 -1.6376406 -1.7611667 190.09
10.014496 -1.8145262 -1.672111 190.27
10.324769 -1.8707445 -1.4746782 190.27
12.198891 -2.2103164 -1.449793 190.27
13.136139 -2.3801365 -1.2454951 190.27
4.420835 -0.80101091 -2.0003309 190.27
20.607698 -3.7339079 -0.97666812 190.27
4.6487365 -0.84230441 -1.9733655 190.27
31.520145 -5.711134 -0.74372029 190.27
4.9348497 -0.89414525 -1.9583708 190.27
30.119583 -5.457366 0 190.27
5.2315984 -0.94791305 -1.93515 190.27
5.6435366 -1.0225521 -1.9379883 190.27
6.0435257 -1.0950261 -1.9165261 190.27
6.5699496 -1.1904089 -1.9145771 190.27
7.0021858 -1.2687258 -1.8629177 190.27
6.8841982 -1.2473476 -1.657721 190.27
8.5140648 -1.5426631 -1.8391868 190.27
9.203577 -1.6675957 -1.7622776 190.27
10.008746 -1.8459786 -1.672111 190.45
10.346108 -1.9082006 -1.478575 190.45
12.186026 -2.2475486 -1.4490961 190.45
13.14818 -2.425005 -1.247353 190.45
4.4093127 -0.81323844 -1.9962634 190.45
20.589972 -3.7975433 -0.97638863 190.45
4.6478825 -0.85723937 -1.9741364 190.45
26.079 -4.8099208 -0.61568952 190.45
4.9338489 -0.90998203 -1.9590983 190.45
30.100323 -5.5515995 0 190.45
5.2433801 -0.96707094 -1.9406223 190.45
5.638433 -1.0399331 -1.937348 190.45
6.0494432 -1.1157385 -1.9195049 190.45
6.5642867 -1.2106944 -1.9140258 190.45
6.931571 -1.278435 -1.84519 190.45
6.9108667 -1.2746165 -1.665099 190.45
8.5130243 -1.5701128 -1.8400185 190.45
9.2040911 -1.6975708 -1.7633885 190.45
10.009045 -1.8767582 -1.6730837 190.62
10.357921 -1.9421747 -1.4810802 190.62
12.220304 -2.2913833 -1.4539745 190.62
13.1605 -2.4676757 -1.2492107 190.62
14.37183 -2.6948075 -1.0224904 190.62
4.4068804 -0.82631755 -1.9962634 190.62
20.586468 -3.860091 -0.97676128 190.62
4.6435046 -0.87068599 -1.9733655 190.62
25.844511 -4.8460069 -0.61049032 190.62
4.9183092 -0.92221361 -1.954006 190.62
30.111238 -5.6460447 0 190.62
5.2386403 -0.98227769 -1.9399383 190.62
12.612734 -2.3649662 0.29793376 190.62
5.631598 -1.0559597 -1.9360676 190.62
6.0461063 -1.1336826 -1.9195049 190.62
6.5833406 -1.2344174 -1.9206411 190.62
6.8497791 -1.2843763 -1.8244234 190.62
6.9912171 -1.3108968 -1.6853882 190.62
8.5025597 -1.5942829 -1.838771 190.62
9.2202625 -1.7288567 -1.7674619 190.62
10.001493 -1.9060779 -1.6727595 190.78999
10.338494 -1.9703032 -1.4791317 190.78999
12.211501 -2.3272595 -1.4537421 190.78999
13.160945 -2.508204 -1.2499539 190.78999
14.361811 -2.7370641 -1.0223509 190.78999
4.4097939 -0.84041548 -1.9987038 190.78999
20.567074 -3.9196591 -0.97638863 190.78999
4.6445265 -0.88515073 -1.9749072 190.78999
25.810377 -4.9189243 -0.61002612 190.78999
4.9283619 -0.93924385 -1.9590983 190.78999
26.392973 -5.0299549 0 190.78999
5.2412415 -0.99887222 -1.9419904 190.78999
30.249268 -5.7648849 0.71493888 190.78999
5.6358852 -1.0740832 -1.9386284 190.78999
6.042716 -1.1516167 -1.9195049 190.78999
6.5758719 -1.2532252 -1.9195385 190.78999
6.8250318 -1.3007098 -1.8188519 190.78999
6.9739146 -1.3290839 -1.6821604 190.78999
8.493948 -1.618771 -1.8379394 190.78999
9.2150927 -1.7562062 -1.7674619 190.78999
10.011632 -1.9369988 -1.6753534 190.95
10.35823 -2.0040567 -1.4827502 190.95
12.203004 -2.3609741 -1.4535098 190.95
13.126518 -2.5396507 -1.247353 190.95
4.3984604 -0.85099137 -1.9946365 190.95
20.559971 -3.9778368 -0.97657496 190.95
4.636601 -0.89706552 -1.9725946 190.95
26.23234 -5.0752974 -0.6203317 190.95
4.9312072 -0.95406443 -1.9612807 190.95
25.534481 -4.940279 0 190.95
5.2236705 -1.0106487 -1.9365181 190.95
30.185938 -5.840219 0.71382475 190.95
5.6328635 -1.0898173 -1.9386284 190.95
30.151485 -5.8335533 1.4321609 190.95
6.0413508 -1.1688493 -1.9201006 190.95
30.149902 -5.8332472 2.1473832 190.95
6.5666842 -1.2704881 -1.9178847 190.95
30.210152 -5.8449035 2.8707323 190.95
6.9144516 -1.3377724 -1.8436706 190.95
30.165234 -5.8362131 3.5930057 190.95
6.8994808 -1.3348758 -1.665099 190.95
8.5047598 -1.645457 -1.8412659 190.95
9.2178707 -1.783426 -1.7689431 190.95
10.009027 -1.9709506 -1.6760019 191.14
11.389206 -2.2427318 -1.6313871 191.14
12.193158 -2.4010439 -1.4532776 191.14
13.127793 -2.5850897 -1.2482818 191.14
4.4027848 -0.86698455 -1.9978904 191.14
20.538826 -4.0444503 -0.97620231 191.14
4.6173043 -0.90922707 -1.965657 191.14
25.85832 -5.0919504 -0.61188298 191.14
4.9298439 -0.97077161 -1.9620082 191.14
25.865288 -5.0933228 0 191.14
5.225822 -1.0290548 -1.9385701 191.14
5.6310778 -1.1088567 -1.9392687 191.14
6.0205827 -1.1855569 -1.9147389 191.14
6.5548897 -1.2907712 -1.9156796 191.14
6.9707246 -1.3726563 -1.8598787 191.14
8.4992571 -1.6736507 -1.8412659 191.14
9.2138348 -1.8143635 -1.7693135 191.14
10.007355 -1.9996667 -1.6766504 191.3
11.404263 -2.2787964 -1.6344489 191.3
12.200042 -2.437809 -1.4549036 191.3
13.142003 -2.6260314 -1.2503254 191.3
14.379921 -2.8733919 -1.0254202 191.3
4.3985553 -0.87891805 -1.9970769 191.3
20.541166 -4.1045299 -0.97685444 191.3
4.6129375 -0.92175585 -1.9648862 191.3
26.145947 -5.2244759 -0.61903191 191.3
4.92346 -0.9838044 -1.9605533 191.3
25.768593 -5.1490726 0 191.3
5.2321429 -1.0454853 -1.9419904 191.3
5.6168113 -1.1223496 -1.9354273 191.3
6.011632 -1.2012426 -1.9129516 191.3
6.5550303 -1.3098243 -1.9167821 191.3
6.7828269 -1.3553425 -1.8107479 191.3
25.578596 -5.1111078 3.0503497 191.3
8.4964685 -1.6977619 -1.8416817 191.3
9.2068052 -1.8397012 -1.7689431 191.3
10.020364 -2.0350237 -1.6798928 191.48
11.348524 -2.3047583 -1.6274903 191.48
12.198163 -2.4773104 -1.4556005 191.48
13.127833 -2.6661162 -1.2497681 191.48
4.3886099 -0.89127761 -1.9938231 191.48
20.52817 -4.1690416 -0.97685444 191.48
4.6226788 -0.93881434 -1.9702821 191.48
25.810013 -5.241725 -0.61146516 191.48
4.9130421 -0.9977839 -1.9576434 191.48
25.658209 -5.2108951 0 191.48
5.2269907 -1.0615433 -1.9413064 191.48
12.648317 -2.5687318 0.29965135 191.48
5.6169715 -1.140744 -1.9367077 191.48
6.0134416 -1.2212627 -1.9147389 191.48
25.427559 -5.1640525 1.8143659 191.48
6.5489988 -1.3300284 -1.9162309 191.48
6.8828206 -1.3978238 -1.8386055 191.48
25.359955 -5.1503229 3.0261903 191.48
6.91926 -1.4052243 -1.672938 191.48
8.500679 -1.7263927 -1.8437608 191.48
9.1855707 -1.8654867 -1.7659807 191.48
9.9585857 -2.0514505 -1.6704898 191.64
11.326526 -2.3332436 -1.6252635 191.64
12.185361 -2.5101621 -1.4549036 191.64
13.118387 -2.7023637 -1.2495823 191.64
4.3914723 -0.90463531 -1.9962634 191.64
20.508621 -4.2247381 -0.9764818 191.64
4.6146164 -0.95060259 -1.9679695 191.64
14.834437 -3.055867 -0.35164353 191.64
4.9248343 -1.0145068 -1.9634632 191.64
25.990278 -5.3539495 0 191.64
5.2203245 -1.0753773 -1.9399383 191.64
5.6137638 -1.1564251 -1.9367077 191.64
6.0156174 -1.2392062 -1.9165261 191.64
6.5132484 -1.3417172 -1.9068593 191.64
25.725769 -5.2994614 2.4504893 191.64
6.9546905 -1.4326535 -1.8588656 191.64
25.666498 -5.2872519 3.0645201 191.64
7.2584057 -1.4952184 -1.7559394 191.64
25.766439 -5.3078394 3.6972725 191.64
9.1610756 -1.8871648 -1.7622776 191.64
9.8246002 -2.0560453 -1.6490899 191.82001
9.8167706 -2.0544066 -1.4095452 191.82001
13.105934 -2.7427471 -1.2492107 191.82001
4.3868203 -0.91805279 -1.99545 191.82001
20.481558 -4.2862825 -0.9758296 191.82001
4.6116076 -0.9650951 -1.9679695 191.82001
25.890007 -5.4181366 -0.61411119 191.82001
4.9252696 -1.0307369 -1.9649181 191.82001
25.478058 -5.3319259 0 191.82001
5.2114015 -1.0906172 -1.9378861 191.82001
12.611323 -2.6392374 0.29914072 191.82001
5.6008301 -1.172115 -1.9335066 191.82001
25.778917 -5.3948884 1.2282187 191.82001
5.9967446 -1.2549701 -1.9117601 191.82001
25.818277 -5.4031253 1.8445007 191.82001
6.4788933 -1.3558717 -1.8980389 191.82001
6.9747748 -1.4596474 -1.8654501 191.82001
25.395052 -5.3145552 3.0340886 191.82001
7.070807 -1.4797447 -1.7116719 191.82001
7.9751997 -1.6690116 -1.7319044 191.82001
9.1493311 -1.9147282 -1.7611667 191.82001
9.8219528 -2.0877206 -1.6497383 192
12.091626 -2.5701544 -1.4456116 192
13.029078 -2.7694161 -1.2427083 192
4.3803406 -0.93107009 -1.9938231 192
20.46213 -4.34936 -0.97555012 192
4.6085529 -0.97957814 -1.9679695 192
14.791474 -3.1440251 -0.35108647 192
4.9238296 -1.0465922 -1.9656457 192
25.400537 -5.3990507 0 192
5.2097878 -1.1073747 -1.9385701 192
5.6100936 -1.1924622 -1.9379883 192
25.716896 -5.4662952 1.2260758 192
5.9927726 -1.2738031 -1.9117601 192
6.5046897 -1.3826145 -1.9068593 192
