# .PCD v0.7 - Point Cloud Data file format
VERSION 0.7
FIELDS x y z intensity
SIZE 4 4 4 4
TYPE F F F F
COUNT 1 1 1 1
WIDTH 1219
HEIGHT 1
VIEWPOINT 0 0 0 1 0 0 0
POINTS 1219
DATA ascii
6.8102021 -5.9241934 -1.9186091 221.02
28.645361 -24.918594 6.2377491 221.02
7.5389156 -6.5581012 -1.8826265 221.02
8.373271 -7.3276639 -1.8280709 221.19
9.6578732 -8.4518518 -1.8036834 221.19
11.05608 -9.675458 -1.7181011 221.19
12.274641 -10.741852 -1.5217557 221.19
13.51104 -11.823856 -1.2554771 221.19
2.5456316 -2.2277474 -1.4129605 221.19
14.554521 -12.737033 -0.44903603 221.19
3.9619517 -3.4672053 -2.0558529 221.19
28.547974 -24.983061 0 221.19
4.2499518 -3.7192416 -2.055541 221.19
28.437965 -24.886791 0.87736803 221.19
4.5741606 -4.002965 -2.0538707 221.19
28.464361 -24.909891 1.7639281 221.19
4.8949647 -4.2837086 -2.0297184 221.19
28.52047 -24.958994 2.650188 221.19
5.2213435 -4.5693312 -1.9895505 221.19
28.509954 -24.949791 3.534538 221.19
5.6929426 -4.9820395 -1.9804263 221.19
28.463875 -24.909464 4.4232507 221.19
6.2842159 -5.4994783 -1.9786596 221.19
28.472841 -24.917313 5.3175259 221.19
6.8102608 -5.9598336 -1.923599 221.19
28.483677 -24.926794 6.2186189 221.19
7.5046339 -6.5674973 -1.8789234 221.19
8.3127756 -7.3158145 -1.8193164 221.35001
9.5375938 -8.3937397 -1.7855909 221.35001
11.070772 -9.743041 -1.7246056 221.35001
12.253565 -10.783981 -1.5228704 221.35001
13.504928 -11.885266 -1.2579882 221.35001
2.4222014 -2.1317041 -1.4365938 221.35001
14.703508 -12.9401 -0.9134078 221.35001
2.5518692 -2.2458205 -1.4198982 221.35001
14.511391 -12.771023 -0.44880393 221.35001
3.9648407 -3.4893327 -2.0624001 221.35001
28.388014 -24.983406 0 221.35001
4.2409601 -3.732337 -2.0562251 221.35001
28.281301 -24.889492 0.87467557 221.35001
4.5672312 -4.0194778 -2.0557914 221.35001
28.310703 -24.915367 1.7587107 221.35001
4.8815498 -4.2961001 -2.0291228 221.35001
28.359301 -24.958136 2.6416776 221.35001
5.2244382 -4.5978656 -1.9956144 221.35001
28.350477 -24.950371 3.523391 221.35001
5.6673884 -4.9876919 -1.9763743 221.35001
28.294292 -24.900925 4.4076867 221.35001
6.2761388 -5.5234342 -1.9809651 221.35001
28.31097 -24.915602 5.3002682 221.35001
6.8126826 -5.9956298 -1.9290047 221.35001
28.32803 -24.930616 6.1998129 221.35001
7.483314 -6.5858316 -1.8781829 221.35001
8.3401709 -7.3891463 -1.8306649 221.53999
9.5645561 -8.4739161 -1.7958897 221.53999
11.007178 -9.7520361 -1.7197273 221.53999
12.247547 -10.850966 -1.5265861 221.53999
13.419147 -11.88897 -1.2536633 221.53999
14.615656 -12.949042 -0.91061282 221.53999
2.444952 -2.1661556 -1.3643973 221.53999
14.627598 -12.959622 -0.45372462 221.53999
2.5211542 -2.2336686 -1.3152803 221.53999
28.233154 -25.013744 0 221.53999
4.22434 -3.742641 -2.054173 221.53999
28.114801 -24.908888 0.87207597 221.53999
4.5552955 -4.0358577 -2.0564315 221.53999
28.133717 -24.925648 1.7528412 221.53999
4.872993 -4.3173285 -2.0315058 221.53999
28.185286 -24.971334 2.6331673 221.53999
5.2062845 -4.6126151 -1.994512 221.53999
28.184114 -24.970297 3.5129871 221.53999
5.6595063 -5.0141563 -1.9794133 221.53999
28.120863 -24.914259 4.3935165 221.53999
6.2286549 -5.518405 -1.9717427 221.53999
28.149622 -24.939739 5.2855163 221.53999
6.7912989 -6.0168915 -1.9285889 221.53999
28.149183 -24.93935 6.1787372 221.53999
7.4584913 -6.6080041 -1.8774422 221.53999
8.3253975 -7.4176588 -1.8319619 221.7
9.529026 -8.4900522 -1.7936629 221.7
10.914642 -9.7245922 -1.709506 221.7
12.217197 -10.885126 -1.5265861 221.7
13.481232 -12.011339 -1.2625922 221.7
2.398221 -2.1367371 -1.430086 221.7
14.531706 -12.947277 -0.90763152 221.7
2.3327947 -2.0784442 -1.3050421 221.7
14.580901 -12.991109 -0.45339966 221.7
3.9295418 -3.5010941 -2.0551255 221.7
28.063143 -25.003347 0 221.7
4.2166786 -3.7569234 -2.055541 221.7
27.960039 -24.911486 0.86942995 221.7
4.5510807 -4.0548654 -2.0596328 221.7
27.983454 -24.932346 1.7478101 221.7
4.8637686 -4.3334599 -2.0326972 221.7
28.029043 -24.972967 2.6250756 221.7
5.1962543 -4.6296935 -1.9956144 221.7
28.023579 -24.968098 3.5016544 221.7
5.6512609 -5.0350895 -1.9814394 221.7
27.959225 -24.910761 4.3791137 221.7
6.2219386 -5.5435448 -1.9745095 221.7
27.986708 -24.935246 5.2679801 221.7
6.7569423 -6.020216 -1.923599 221.7
27.99102 -24.939089 6.1592827 221.7
7.4693584 -6.6549554 -1.8848484 221.7
27.9624 -24.913591 7.0561461 221.7
8.2976456 -7.4398251 -1.8309891 221.88
9.4934587 -8.5120134 -1.7919929 221.88
11.163571 -10.009468 -1.7534109 221.88
12.22149 -10.958017 -1.5314164 221.88
13.453829 -12.062956 -1.2635688 221.88
2.3860552 -2.1393819 -1.4268322 221.88
14.308 -12.828821 -0.89617199 221.88
2.3262534 -2.0857627 -1.3050421 221.88
14.461116 -12.966108 -0.45093933 221.88
3.9226847 -3.517153 -2.057308 221.88
27.901066 -25.016619 0 221.88
4.2006569 -3.7663882 -2.053489 221.88
27.793806 -24.920448 0.86669105 221.88
4.5369091 -4.0678778 -2.0589924 221.88
27.815739 -24.940115 1.7422202 221.88
4.8501306 -4.3487182 -2.0326972 221.88
27.899944 -25.015615 2.6203322 221.88
5.1845469 -4.6485624 -1.996717 221.88
27.864937 -24.984226 3.491622 221.88
5.628212 -5.0463605 -1.9789069 221.88
27.802439 -24.92819 4.3668017 221.88
6.22188 -5.5786543 -1.9800429 221.88
27.828604 -24.951651 5.2529497 221.88
6.7511048 -6.0531673 -1.9273413 221.88
27.834656 -24.957075 6.1420979 221.88
7.4162207 -6.6495228 -1.8767016 221.88
27.813755 -24.938335 7.0383716 221.88
8.2770004 -7.4657335 -1.8313134 222.05
9.4608078 -8.5335112 -1.7906011 222.05
10.354987 -9.3400469 -1.6307558 222.05
12.208146 -11.01157 -1.5338316 222.05
2.3444221 -2.1146345 -1.4056818 222.05
14.256521 -12.859175 -0.89533347 222.05
2.4488704 -2.2088456 -1.3775016 222.05
14.603717 -13.17234 -0.45660275 222.05
3.9149988 -3.5312719 -2.0587628 222.05
27.753946 -25.033655 0 222.05
4.1908588 -3.7800939 -2.054173 222.05
27.623236 -24.915758 0.86367369 222.05
4.5248194 -4.0813212 -2.0589924 222.05
27.658541 -24.947601 1.7370028 222.05
4.844295 -4.3694835 -2.035676 222.05
27.744118 -25.02479 2.612659 222.05
5.1864352 -4.6780891 -2.0027809 222.05
27.699005 -24.9841 3.4801035 222.05
5.623271 -5.0721087 -1.9824524 222.05
27.648699 -24.938725 4.3542576 222.05
6.2053003 -5.5970907 -1.9800429 222.05
27.667679 -24.955845 5.236527 222.05
6.7360206 -6.0757923 -1.9281731 222.05
27.671089 -24.95892 6.1223192 222.05
7.3789454 -6.6557012 -1.8722579 222.05
27.657909 -24.947033 7.0176349 222.05
8.1846581 -7.4266024 -1.8157498 222.22
9.3987789 -8.5282726 -1.7836424 222.22
12.168047 -11.041053 -1.5329027 222.22
2.392261 -2.170692 -1.4382207 222.22
14.421 -13.08534 -0.90809733 222.22
14.38392 -13.051694 -0.45093933 222.22
3.9058838 -3.5441241 -2.0594902 222.22
27.575867 -25.021814 0 222.22
3.3821139 -3.0688655 -1.6622179 222.22
27.473671 -24.929085 0.86130613 222.22
27.498587 -24.951691 1.7315991 222.22
4.829895 -4.3825545 -2.0350802 222.22
27.598824 -25.042645 2.6059623 222.22
5.1782269 -4.6986241 -2.004986 222.22
27.54217 -24.991238 3.4696996 222.22
5.5981674 -5.07967 -1.9789069 222.22
27.486317 -24.940559 4.3403192 222.22
6.1958723 -5.622016 -1.9823486 222.22
27.505508 -24.957973 5.2198262 222.22
6.7324514 -6.1088977 -1.9323312 222.22
27.523836 -24.974604 6.1061072 222.22
7.446497 -6.7568092 -1.8944763 222.22
27.497892 -24.951063 6.9957867 222.22
8.1335964 -7.4269943 -1.8095891 222.39999
9.3690147 -8.5550861 -1.7830858 222.39999
12.155358 -11.099367 -1.5356895 222.39999
13.360003 -12.199359 -1.2651035 222.39999
2.4205098 -2.2102292 -1.4593711 222.39999
14.399 -13.148093 -0.90930849 222.39999
2.413527 -2.2038529 -1.3651681 222.39999
3.896106 -3.5576336 -2.0602179 222.39999
27.421801 -25.039545 0 222.39999
27.315487 -24.942467 0.8587994 222.39999
3.260119 -2.9768977 -1.4917451 222.39999
27.340395 -24.965212 1.7265681 222.39999
4.818923 -4.4002814 -2.0362718 222.39999
27.428669 -25.045816 2.5973125 222.39999
5.1847358 -4.7343144 -2.0132554 222.39999
27.384113 -25.005131 3.4596672 222.39999
5.5893254 -5.1037555 -1.9814394 222.39999
27.32128 -24.947758 4.3266134 222.39999
6.172431 -5.6362042 -1.980504 222.39999
27.349451 -24.97348 5.2050738 222.39999
6.7175603 -6.1339755 -1.9335787 222.39999
27.353426 -24.97711 6.08568 222.39999
7.3787889 -6.7377601 -1.8826265 222.39999
27.343899 -24.968412 6.976531 222.39999
8.0981321 -7.4335818 -1.8060225 222.55
9.3465862 -8.5795851 -1.7830858 222.55
10.21455 -9.3763227 -1.6214638 222.55
12.154132 -11.156737 -1.5392194 222.55
12.785667 -11.736448 -1.2136232 222.55
2.3931792 -2.1967897 -1.4463555 222.55
14.270335 -13.099281 -0.90334582 222.55
2.4145467 -2.216404 -1.3690224 222.55
14.010967 -12.861197 -0.44156215 222.55
2.4031601 -2.2059517 -1.2738141 222.55
27.255964 -25.019281 0 222.55
27.172026 -24.942232 0.85633904 222.55
27.189581 -24.958345 1.7211645 222.55
4.8186383 -4.4232106 -2.0410378 222.55
27.26306 -25.025795 2.5878258 222.55
5.1539121 -4.7309709 -2.0060887 222.55
27.232002 -24.997286 3.4487059 222.55
5.5702429 -5.1131372 -1.9794133 222.55
27.182703 -24.952032 4.3149986 222.55
6.1676903 -5.6615562 -1.9837319 222.55
27.199352 -24.967316 5.18893 222.55
6.6813021 -6.1330204 -1.9277571 222.55
27.210886 -24.977903 6.0684953 222.55
7.421936 -6.8128762 -1.8981793 222.55
27.193012 -24.961496 6.9546828 222.55
8.2328758 -7.6077285 -1.8416891 222.74001
9.3035374 -8.5970907 -1.7803023 222.74001
12.12438 -11.203738 -1.5401483 222.74001
2.3831973 -2.2022338 -1.4447286 222.74001
14.489462 -13.389233 -0.92002267 222.74001
2.4437792 -2.2582154 -1.3898351 222.74001
14.031385 -12.965939 -0.44355828 222.74001
3.8776627 -3.5832195 -2.0616727 222.74001
27.102341 -25.044374 0 222.74001
3.2229948 -2.9782627 -1.597234 222.74001
27.006929 -24.956209 0.85373944 222.74001
3.3300664 -3.077204 -1.5320799 222.74001
27.024498 -24.972443 1.7159472 222.74001
4.8025417 -4.43787 -2.040442 222.74001
27.062696 -25.007742 2.5766647 222.74001
5.1410189 -4.7506452 -2.0071912 222.74001
27.06852 -25.013123 3.4384878 222.74001
5.5447307 -5.123702 -1.9763743 222.74001
27.022486 -24.970585 4.3026867 222.74001
6.1431646 -5.6766949 -1.9818875 222.74001
27.034952 -24.982103 5.1733427 222.74001
6.6752954 -6.1684194 -1.9319154 222.74001
27.042389 -24.988976 6.049365 222.74001
27.026365 -24.974169 6.9332051 222.74001
6.9682937 -6.4753385 -1.5628418 222.89999
9.0009346 -8.3641853 -1.7268598 222.89999
10.133801 -9.4169083 -1.6177469 222.89999
12.110551 -11.253819 -1.5423777 222.89999
2.4158525 -2.2449486 -1.4683193 222.89999
14.48275 -13.458201 -0.92197919 222.89999
2.8538468 -2.651958 -1.6272557 222.89999
3.8621824 -3.5889614 -2.0587628 222.89999
26.953184 -25.046444 0 222.89999
3.1912608 -2.9655025 -1.5856054 222.89999
26.855112 -24.955309 0.85113984 222.89999
26.875628 -24.974375 1.710916 222.89999
4.7859344 -4.4473648 -2.0386548 222.89999
26.894835 -24.992222 2.5673172 222.89999
5.1361828 -4.7728353 -2.0104988 222.89999
26.924168 -25.019482 3.4290128 222.89999
5.5346532 -5.143117 -1.9778938 222.89999
26.866795 -24.966166 4.2889805 222.89999
6.1287141 -5.6951528 -1.9823486 222.89999
26.888189 -24.986048 5.1585903 222.89999
6.6537447 -6.1830411 -1.930668 222.89999
26.900217 -24.997225 6.0331531 222.89999
7.0619946 -6.5624104 -1.816342 222.89999
26.906128 -25.002718 6.9202447 222.89999
8.1976767 -7.6658845 -1.8439587 223.08
8.7272472 -8.1611013 -1.6792626 223.08
11.935506 -11.161237 -1.5245425 223.08
2.4461541 -2.2874696 -1.4910965 223.08
14.371815 -13.4395 -0.91760033 223.08
2.446511 -2.2878032 -1.3990853 223.08
13.872415 -12.972496 -0.44095868 223.08
3.3011501 -3.0870011 -1.7648617 223.08
14.403502 -13.469131 0 223.08
3.2368369 -3.0268598 -1.612967 223.08
26.70356 -24.97127 0.84881878 223.08
26.709482 -24.97681 1.7053261 223.08
4.7844896 -4.4741144 -2.0440166 223.08
26.736038 -25.001642 2.559644 223.08
5.1127377 -4.7810688 -2.0071912 223.08
26.762529 -25.026415 3.4184232 223.08
5.5114021 -5.1538715 -1.9753613 223.08
26.706978 -24.974466 4.2759719 223.08
6.1235852 -5.7263412 -1.9864986 223.08
26.722765 -24.989231 5.1418896 223.08
6.6357164 -6.2052503 -1.9310838 223.08
26.735064 -25.000732 6.0136986 223.08
6.9982772 -6.5442915 -1.8052329 223.08
26.749928 -25.014631 6.9002481 223.08
8.1878328 -7.7023439 -1.8468769 223.25
7.1060753 -6.6847281 -1.3711334 223.25
11.609348 -10.920984 -1.4870141 223.25
2.4539952 -2.3084881 -1.5000447 223.25
14.19509 -13.353408 -0.90884268 223.25
2.4450891 -2.3001101 -1.4021686 223.25
13.841146 -13.02045 -0.44119078 223.25
26.65255 -25.072216 0 223.25
3.2442684 -3.051903 -1.6211755 223.25
26.546339 -24.972301 0.84617275 223.25
26.563955 -24.988874 1.700761 223.25
4.7656312 -4.483058 -2.0416336 223.25
26.568735 -24.99337 2.5507152 223.25
5.0999298 -4.7975349 -2.0077424 223.25
26.611282 -25.033396 3.4085767 223.25
5.5158157 -5.1887612 -1.9824524 223.25
26.557522 -24.982822 4.2638922 223.25
6.1108203 -5.7484856 -1.9878819 223.25
26.57349 -24.997843 5.1274152 223.25
6.6244001 -6.2316136 -1.9331629 223.25
26.577394 -25.001516 5.9948926 223.25
6.9788289 -6.5650268 -1.8052329 223.25
26.599718 -25.022516 6.8806224 223.25
8.1764107 -7.7374558 -1.8494709 223.42
9.2440081 -8.7477388 -1.7886527 223.42
10.913622 -10.327718 -1.7571278 223.42
11.643428 -11.018344 -1.4955602 223.42
13.314615 -12.599813 -1.281845 223.42
14.216353 -13.453141 -0.91275567 223.42
13.838759 -13.095818 -0.44235131 223.42
3.2705951 -3.0950112 -1.7583144 223.42
14.416293 -13.642346 0 223.42
3.2597702 -3.0847676 -1.6334882 223.42
26.396608 -24.979492 0.84375882 223.42
4.4493427 -4.2104774 -2.0698764 223.42
26.414238 -24.996174 1.6959162 223.42
4.7509217 -4.4958658 -2.0410378 223.42
26.435047 -25.015865 2.5449951 223.42
5.08288 -4.8100028 -2.00664 223.42
26.467464 -25.046543 3.3996589 223.42
5.5003963 -5.2051044 -1.9824524 223.42
26.403923 -24.986414 4.2511153 223.42
6.0923238 -5.7652535 -1.9874208 223.42
26.421522 -25.003069 5.1123848 223.42
6.620091 -6.2646875 -1.9373212 223.42
26.435724 -25.016508 5.9796529 223.42
6.9193482 -6.5478792 -1.7948644 223.42
26.439705 -25.020273 6.8584037 223.42
6.968699 -6.6362023 -1.5809993 223.60001
9.2179155 -8.7781019 -1.788931 223.60001
11.538093 -10.987577 -1.4864568 223.60001
13.311087 -12.675976 -1.2853328 223.60001
2.392215 -2.2780757 -1.4707597 223.60001
13.984335 -13.317102 -0.4483397 223.60001
3.2595065 -3.103986 -1.757587 223.60001
14.36757 -13.682052 0 223.60001
3.2568679 -3.1014736 -1.6369084 223.60001
26.241262 -24.989216 0.84129846 223.60001
3.276644 -3.120306 -1.5288787 223.60001
26.25456 -25.001881 1.6906989 223.60001
4.7367744 -4.5107694 -2.0410378 223.60001
26.281197 -25.027245 2.5377405 223.60001
5.0858431 -4.843183 -2.0138066 223.60001
26.30789 -25.052666 3.389255 223.60001
5.4910221 -5.2290297 -1.9849849 223.60001
26.246176 -24.993896 4.2383389 223.60001
6.0770001 -5.7870488 -1.9883431 223.60001
26.266829 -25.013561 5.0976324 223.60001
6.6017938 -6.2868032 -1.937737 223.60001
26.278399 -25.02458 5.9618196 223.60001
6.9884114 -6.654974 -1.8181936 223.60001
26.285536 -25.031378 6.838778 223.60001
6.9458637 -6.6515417 -1.5800265 223.75999
9.1976576 -8.8079185 -1.7897661 223.75999
10.890881 -10.429394 -1.7634 223.75999
11.42107 -10.937118 -1.4753097 223.75999
13.308779 -12.744836 -1.2885416 223.75999
2.4914126 -2.3858421 -1.5358375 223.75999
14.142043 -13.542792 -0.91312832 223.75999
3.5481412 -3.3977933 -2.0519917 223.75999
14.100166 -13.50269 -0.45326039 223.75999
3.2360249 -3.0989025 -1.7495847 223.75999
14.285972 -13.680622 0 223.75999
3.2590532 -3.1209552 -1.6423807 223.75999
26.094839 -24.989103 0.8388381 223.75999
3.2583385 -3.1202705 -1.5243971 223.75999
26.111052 -25.004629 1.6859474 223.75999
4.7310538 -4.5305815 -2.0440166 223.75999
26.124746 -25.017744 2.5293698 223.75999
5.0653558 -4.850718 -2.0110502 223.75999
26.1616 -25.053036 3.3794086 223.75999
5.4833856 -5.2510343 -1.9875174 223.75999
26.101673 -24.995647 4.2262592 223.75999
6.0495715 -5.7932286 -1.9846541 223.75999
26.119631 -25.012846 5.0826015 223.75999
6.5842118 -6.3052144 -1.937737 223.75999
26.138571 -25.030981 5.9459319 223.75999
6.9186974 -6.6255264 -1.8048626 223.75999
26.140299 -25.032637 6.8191519 223.75999
9.1784983 -8.8450165 -1.7914362 223.94
10.606315 -10.220956 -1.7225149 223.94
11.472689 -11.055852 -1.4864568 223.94
13.270111 -12.787969 -1.2886811 223.94
2.9746339 -2.8665569 -1.8392631 223.94
14.063463 -13.552496 -0.91079915 223.94
13.75965 -13.259721 -0.44365114 223.94
3.175297 -3.0599291 -1.7219405 223.94
26.033297 -25.087431 0 223.94
4.0815015 -3.9332085 -2.0630655 223.94
25.941338 -24.998814 0.83642417 223.94
3.245791 -3.127862 -1.5231166 223.94
4.7099237 -4.5387983 -2.0410378 223.94
25.977064 -25.033241 2.5226731 223.94
5.0390172 -4.8559346 -2.00664 223.94
26.015371 -25.070156 3.3706768 223.94
5.4766145 -5.2776327 -1.9910629 223.94
25.95579 -25.012739 4.2153411 223.94
6.0467563 -5.8270597 -1.9897264 223.94
25.981026 -25.037058 5.0709109 223.94
6.5840921 -6.344873 -1.9435585 223.94
25.984488 -25.040394 5.9287472 223.94
6.8794508 -6.6294999 -1.8000487 223.94
25.993595 -25.049171 6.8013773 223.94
9.1438065 -8.8609648 -1.7894877 224.10001
12.005207 -11.633855 -1.5596555 224.10001
13.252975 -12.843025 -1.2904948 224.10001
2.9482484 -2.8570514 -1.8278744 224.10001
13.896441 -13.466587 -0.90241414 224.10001
2.9805722 -2.8883753 -1.7336324 224.10001
13.672313 -13.249393 -0.44202638 224.10001
3.028939 -2.935246 -1.6470102 224.10001
25.89707 -25.096006 0 224.10001
3.2431753 -3.1428554 -1.6437488 224.10001
25.805378 -25.007151 0.83428878 224.10001
3.311095 -3.2086744 -1.438735 224.10001
25.833986 -25.034874 2.515558 224.10001
5.022676 -4.8673115 -2.0055375 224.10001
25.87233 -25.072031 3.3612018 224.10001
5.4549079 -5.2861733 -1.9885304 224.10001
25.807381 -25.009092 4.2025647 224.10001
6.0206776 -5.8344426 -1.9864986 224.10001
25.837049 -25.037842 5.056437 224.10001
6.5663486 -6.3632345 -1.9435585 224.10001
25.845015 -25.045561 5.9128594 224.10001
6.882082 -6.6692014 -1.8056033 224.10001
25.84874 -25.049171 6.7817512 224.10001
6.8922758 -6.7211947 -1.5816478 224.28
7.6923141 -7.5013747 -1.5100281 224.28
10.400414 -10.142253 -1.6988201 224.28
11.984282 -11.686806 -1.5616992 224.28
13.188278 -12.860918 -1.288123 224.28
2.9379501 -2.8650239 -1.8270611 224.28
13.981363 -13.634316 -0.91070598 224.28
2.9701622 -2.8964365 -1.7328616 224.28
13.720805 -13.380225 -0.44495094 224.28
3.1050653 -3.0279911 -1.6935688 224.28
23.272232 -22.694565 0 224.28
3.0141985 -2.9393797 -1.4225999 224.28
23.202627 -22.626688 1.5113527 224.28
4.6788063 -4.5626683 -2.0392506 224.28
25.679506 -25.042086 2.5081637 224.28
5.0142422 -4.8897781 -2.0082939 224.28
25.710747 -25.072552 3.3504262 224.28
5.4424295 -5.3073368 -1.9900498 224.28
25.657576 -25.0207 4.1909494 224.28
6.009285 -5.8601217 -1.9888042 224.28
25.69162 -25.0539 5.043355 224.28
6.5589309 -6.3961239 -1.9473009 224.28
25.689905 -25.052227 5.8953505 224.28
6.8273253 -6.6578565 -1.796716 224.28
25.698154 -25.060272 6.7628655 224.28
6.96106 -6.8286839 -1.602075 224.45
10.388709 -10.191151 -1.70184 224.45
11.969455 -11.741836 -1.5643002 224.45
13.187092 -12.936317 -1.2917504 224.45
2.9346535 -2.8788462 -1.8303149 224.45
13.928013 -13.663149 -0.90986747 224.45
3.5082836 -3.4415677 -2.0527627 224.45
14.020751 -13.754124 -0.45599926 224.45
3.1266558 -3.0671973 -1.7103008 224.45
24.922344 -24.448404 0 224.45
25.497984 -25.013098 0.82927525 224.45
3.0541573 -2.9960775 -1.4456483 224.45
23.065508 -22.626879 1.5067875 224.45
4.6747885 -4.5858898 -2.0434208 224.45
25.525333 -25.039927 2.500351 224.45
5.0065737 -4.9113655 -2.0110502 224.45
25.575115 -25.088762 3.3424375 224.45
5.4252772 -5.3221068 -1.9895434 224.45
25.510904 -25.025772 4.1791019 224.45
5.9779787 -5.8642974 -1.984193 224.45
25.543652 -25.057896 5.0288806 224.45
6.5413208 -6.4169264 -1.9477167 224.45
25.542202 -25.056475 5.87849 224.45
6.834199 -6.7042351 -1.8037517 224.45
25.549324 -25.063461 6.7432394 224.45
6.9477921 -6.8562388 -1.6036961 224.62
9.0630112 -8.9435854 -1.7894877 224.62
10.481438 -10.343321 -1.7220503 224.62
10.355573 -10.219114 -1.357337 224.62
13.107469 -12.934748 -1.2877045 224.62
2.9742169 -2.935025 -1.8604134 224.62
13.85044 -13.667929 -0.90744513 224.62
3.4941161 -3.4480729 -2.0504501 224.62
13.676744 -13.496521 -0.44611147 224.62
3.1175416 -3.0764606 -1.7103008 224.62
24.866777 -24.539101 0 224.62
3.20783 -3.1655593 -1.6403286 224.62
25.356768 -25.022635 0.82709342 224.62
3.1140356 -3.0730009 -1.4783002 224.62
4.6720328 -4.6104679 -2.0481868 224.62
25.384182 -25.049686 2.493794 224.62
4.9919796 -4.9261985 -2.0110502 224.62
25.422606 -25.087605 3.3322196 224.62
5.397068 -5.3259492 -1.9849849 224.62
25.365843 -25.03159 4.1674871 224.62
5.9647083 -5.8861094 -1.9855764 224.62
25.390247 -25.055672 5.0132933 224.62
6.5306072 -6.4445515 -1.9502116 224.62
25.396105 -25.061451 5.8619537 224.62
6.791894 -6.702395 -1.7978269 224.62
25.407698 -25.072893 6.7254648 224.62
6.9038124 -6.855782 -1.5985082 224.8
7.0013566 -6.9526477 -1.3867208 224.8
10.601779 -10.528022 -1.3939364 224.8
13.056858 -12.966021 -1.2867279 224.8
3.0362866 -3.0151629 -1.9051545 224.8
13.919423 -13.822584 -0.91480535 224.8
3.0430865 -3.0219154 -1.6746544 224.8
25.294777 -25.118801 0 224.8
25.207094 -25.031727 0.82477236 224.8
3.2468791 -3.2242904 -1.5461651 224.8
25.229042 -25.053522 1.6580905 224.8
4.6561708 -4.6237779 -2.047591 224.8
25.231745 -25.056206 2.4865394 224.8
4.9819355 -4.9472756 -2.0132554 224.8
25.273014 -25.097189 3.3229303 224.8
5.3748178 -5.3374252 -1.9829588 224.8
25.219421 -25.043968 4.1563368 224.8
5.8978553 -5.8568234 -1.9694372 224.8
25.24114 -25.065536 4.9993763 224.8
6.4853425 -6.4402237 -1.9427269 224.8
25.250029 -25.074362 5.8463902 224.8
6.7735934 -6.726469 -1.7985674 224.8
25.253496 -25.077805 6.7054682 224.8
6.8862329 -6.8790255 -1.5991567 224.97
7.2539277 -7.246335 -1.4409983 224.97
10.731458 -10.720225 -1.7738534 224.97
13.080436 -13.066746 -1.2928665 224.97
2.3629179 -2.3604448 -1.4870292 224.97
13.859975 -13.845469 -0.91359419 224.97
3.0147102 -3.0115547 -1.7798831 224.97
12.780663 -12.767287 -0.41941905 224.97
3.0222447 -3.0190814 -1.6681072 224.97
25.149389 -25.123068 0 224.97
2.9464417 -2.9433577 -1.5158333 224.97
25.061983 -25.035753 0.82245129 224.97
4.3566127 -4.3520527 -2.0807605 224.97
25.089579 -25.063318 1.6538048 224.97
4.6545877 -4.6497164 -2.0529528 224.97
25.088127 -25.061869 2.4797032 224.97
4.9468327 -4.9416552 -2.004986 224.97
24.971615 -24.945478 3.2930191 224.97
5.3794904 -5.3738599 -1.9905564 224.97
25.070518 -25.044277 4.1440244 224.97
5.8749447 -5.8687954 -1.9675927 224.97
25.102205 -25.075932 4.9865723 224.97
6.5104947 -6.5036802 -1.9560332 224.97
25.09733 -25.071062 5.8282328 224.97
6.7257957 -6.7187562 -1.7911614 224.97
25.115015 -25.088728 6.6884341 224.97
7.2771001 -7.3127499 -1.4499054 225.14
10.701004 -10.753428 -1.7740858 225.14
11.890396 -11.948646 -1.5726604 225.14
13.090865 -13.154996 -1.2977494 225.14
13.810378 -13.878034 -0.91303515 225.14
2.3574855 -2.3690345 -1.3960019 225.14
12.787858 -12.850505 -0.42090455 225.14
2.9317982 -2.9461608 -1.6230035 225.14
25.02113 -25.143705 0 225.14
2.9085307 -2.9227793 -1.5007844 225.14
24.924124 -25.046225 0.82036233 225.14
24.936188 -25.058348 1.6485875 225.14
2.9250596 -2.9393892 -1.2939678 225.14
24.943291 -25.065485 2.4727275 225.14
4.9321485 -4.9563107 -2.004986 225.14
24.978962 -25.10133 3.3037946 225.14
5.3648868 -5.3911691 -1.9910629 225.14
24.926041 -25.048149 4.1324096 225.14
5.8602509 -5.8889599 -1.9685149 225.14
24.95365 -25.075895 4.9718199 225.14
6.4953089 -6.5271287 -1.9572806 225.14
24.956013 -25.07827 5.8126688 225.14
7.1619444 -7.1970301 -1.9129914 225.14
24.966988 -25.089298 6.668808 225.14
6.8329816 -6.9097362 -1.5965629 225.32001
8.9266119 -9.0268841 -1.7841991 225.32001
7.3596063 -7.4422765 -1.223996 225.32001
10.952462 -11.075491 -1.4532014 225.32001
13.083141 -13.230104 -1.3010978 225.32001
2.3510242 -2.3774331 -1.4886562 225.32001
15.056287 -15.225413 -0.99856234 225.32001
2.3318644 -2.358058 -1.38521 225.32001
12.776949 -12.920471 -0.42187941 225.32001
2.930388 -2.9633048 -1.6273683 225.32001
24.873106 -25.152504 0 225.32001
2.928407 -2.9613016 -1.5158333 225.32001
24.775021 -25.053318 0.81804127 225.32001
24.798342 -25.0769 1.6446744 225.32001
2.9332628 -2.966212 -1.3017126 225.32001
24.795681 -25.074211 2.4658914 225.32001
4.9341273 -4.989552 -2.0121527 225.32001
24.845371 -25.124458 3.2965491 225.32001
5.3547258 -5.414875 -1.9935954 225.32001
24.782974 -25.061359 4.1217237 225.32001
5.8444586 -5.910109 -1.9694372 225.32001
24.809296 -25.087978 4.9587374 225.32001
6.4733958 -6.5461111 -1.9568648 225.32001
24.809107 -25.087788 5.7967811 225.32001
7.0936937 -7.173377 -1.9007714 225.32001
24.818945 -25.097734 6.6502929 225.32001
7.0516667 -7.1708198 -1.6523323 225.48
7.2363548 -7.3586283 -1.4504621 225.48
7.3555083 -7.4797955 -1.2267836 225.48
13.075522 -13.296461 -1.3040276 225.48
15.061337 -15.31583 -1.00173 225.48
2.9800208 -3.0303745 -1.7752581 225.48
12.848767 -13.065874 -0.42545387 225.48
2.9443078 -2.9940581 -1.6397355 225.48
24.734056 -25.151991 0 225.48
2.9609761 -3.011008 -1.5370386 225.48
24.641874 -25.05825 0.81595224 225.48
2.9426801 -2.9924028 -1.4181182 225.48
24.660978 -25.077679 1.6402024 225.48
4.6237254 -4.7018528 -2.0577188 225.48
24.655621 -25.072229 2.4589157 225.48
4.9309583 -5.0142775 -2.0165629 225.48
24.701113 -25.11849 3.2867024 225.48
5.3422971 -5.4325662 -1.9946084 225.48
24.644644 -25.061068 4.1103411 225.48
5.80337 -5.9014301 -1.9611371 225.48
24.672485 -25.089378 4.9453769 225.48
6.4619489 -6.571137 -1.958944 225.48
24.679451 -25.096462 5.7828388 225.48
7.0736341 -7.1931581 -1.9007714 225.48
24.681236 -25.098278 6.6321483 225.48
7.1187615 -7.2846847 -1.6734079 225.66
7.0955424 -7.2609243 -1.4268026 225.66
10.608523 -10.855785 -1.775015 225.66
11.711876 -11.984855 -1.5633713 225.66
13.068546 -13.373146 -1.3075154 225.66
15.071793 -15.423083 -1.005643 225.66
2.9524283 -3.0212431 -1.7644663 225.66
13.674077 -13.99279 -0.45423526 225.66
24.58223 -25.15519 0 225.66
2.9764593 -3.0458341 -1.5500352 225.66
24.494555 -25.065472 0.81367761 225.66
2.890888 -2.9582684 -1.3976308 225.66
24.519239 -25.090731 1.6360099 225.66
4.5942531 -4.7013354 -2.0511656 225.66
24.505615 -25.07679 2.4518006 225.66
4.928618 -5.0434937 -2.0220757 225.66
24.347897 -24.915394 3.250103 225.66
5.3265557 -5.4507065 -1.9951149 225.66
24.496372 -25.067331 4.0987258 225.66
5.8106446 -5.9460783 -1.9698983 225.66
24.529867 -25.101606 4.9325728 225.66
6.4508438 -6.6011996 -1.9618547 225.66
24.534277 -25.106119 5.7672753 225.66
7.0166597 -7.180203 -1.8915138 225.66
24.539078 -25.111031 6.6151142 225.66
7.0297337 -7.2364111 -1.6575202 225.83
8.9231901 -9.1855354 -1.7997866 225.83
10.562426 -10.872965 -1.772692 225.83
13.046883 -13.430466 -1.309329 225.83
2.3425004 -2.4113708 -1.4967909 225.83
15.067727 -15.510724 -1.008438 225.83
2.9627397 -3.0498457 -1.776029 225.83
23.637096 -24.332037 -0.78758866 225.83
2.945435 -3.032032 -1.6506476 225.83
24.444775 -25.16346 0 225.83
2.9320514 -3.018255 -1.5315661 225.83
24.355989 -25.072065 0.81154221 225.83
2.9124634 -2.9980912 -1.4123561 225.83
24.375082 -25.091721 1.6313516 225.83
4.5829444 -4.7176847 -2.052357 225.83
24.371326 -25.087852 2.4458015 225.83
4.9283676 -5.0732636 -2.0281396 225.83
24.362667 -25.078941 3.2619932 225.83
5.3265376 -5.48314 -2.001193 225.83
24.362371 -25.078634 4.088737 225.83
5.7889085 -5.959105 -1.9685149 225.83
24.382141 -25.098986 4.9178209 225.83
6.428503 -6.6175041 -1.9610231 225.83
24.38542 -25.102362 5.7497663 225.83
6.9925857 -7.1981707 -1.8907732 225.83
24.398729 -25.116062 6.5973396 225.83
7.0439739 -7.2967968 -1.6662747 226.00999
7.2463832 -7.5064712 -1.4663278 226.00999
7.359127 -7.6232615 -1.2390957 226.00999
11.862502 -12.288272 -1.5934683 226.00999
13.053123 -13.521627 -1.314212 226.00999
15.070264 -15.611167 -1.0118852 226.00999
2.9223819 -3.0272722 -1.7575287 226.00999
23.616085 -24.463717 -0.78944552 226.00999
2.9035473 -3.0077615 -1.6324607 226.00999
24.301702 -25.173941 0 226.00999
2.8807855 -2.9841828 -1.5096769 226.00999
24.21739 -25.086601 0.80954611 226.00999
3.1372731 -3.2498763 -1.5263178 226.00999
24.232307 -25.102055 1.6270659 226.00999
3.2142456 -3.3296115 -1.4440968 226.00999
24.223106 -25.092524 2.4388258 226.00999
4.9137406 -5.0901051 -2.0286911 226.00999
24.278227 -25.149624 3.26125 226.00999
5.3106294 -5.5012388 -2.0016994 226.00999
24.219999 -25.089306 4.0780511 226.00999
5.780972 -5.9884629 -1.972204 226.00999
24.24127 -25.11134 4.9052949 226.00999
6.3913774 -6.6207771 -1.9560332 226.00999
24.252983 -25.123472 5.7371206 226.00999
6.9344463 -7.1833382 -1.8811452 226.00999
24.262373 -25.1332 6.5817866 226.00999
7.0412507 -7.3322945 -1.6701655 226.16
7.1951551 -7.4925604 -1.4599258 226.16
10.485868 -10.919291 -1.7703689 226.16
11.864774 -12.355193 -1.5981128 226.16
13.014915 -13.552876 -1.3139329 226.16
2.8765471 -2.9954467 -1.8490248 226.16
15.084694 -15.708206 -1.0156119 226.16
2.922116 -3.0428991 -1.7621537 226.16
23.514566 -24.486521 -0.78819215 226.16
2.927923 -3.0489461 -1.6506476 226.16
24.177532 -25.176889 0 226.16
2.8469279 -2.9646032 -1.4959961 226.16
24.32613 -25.331629 0.81539524 226.16
3.1353161 -3.2649117 -1.529519 226.16
24.321491 -25.326799 1.6375006 226.16
4.5702434 -4.75915 -2.0589101 226.16
24.180824 -25.180317 2.4411976 226.16
4.9137139 -5.1168184 -2.0342038 226.16
24.148855 -25.147028 3.2527039 226.16
5.293529 -5.5123324 -2.0006864 226.16
24.096445 -25.092449 4.0682945 226.16
5.7544909 -5.9923477 -1.9685149 226.16
24.112343 -25.109005 4.8924913 226.16
6.3740225 -6.6374869 -1.9560332 226.16
24.121511 -25.118553 5.7215571 226.16
6.9088101 -7.1943798 -1.8792938 226.16
24.129786 -25.127169 6.5636415 226.16
6.943336 -7.278492 -1.6526566 226.35001
7.0554357 -7.3960023 -1.4365448 226.35001
10.404352 -10.906572 -1.7627029 226.35001
11.834733 -12.405997 -1.5995991 226.35001
12.986427 -13.613284 -1.3156071 226.35001
2.8678591 -3.0062912 -1.8498383 226.35001
15.078028 -15.805846 -1.0186864 226.35001
2.8916278 -3.0312073 -1.7498202 226.35001
23.427717 -24.558577 -0.78800648 226.35001
2.9409432 -3.0829029 -1.6637423 226.35001
24.171219 -25.337967 0 226.35001
2.8422704 -2.9794672 -1.4987322 226.35001
24.066717 -25.22842 0.80949968 226.35001
3.1205485 -3.2711778 -1.5275983 226.35001
24.059479 -25.220835 1.6254821 226.35001
4.5452113 -4.7646093 -2.05474 226.35001
24.046236 -25.206951 2.4360356 226.35001
4.8834491 -5.1191735 -2.0286911 226.35001
24.069456 -25.231293 3.2532613 226.35001
5.2778912 -5.5326557 -2.0016994 226.35001
24.013102 -25.172218 4.0682945 226.35001
5.7439909 -6.0212541 -1.9717427 226.35001
24.00844 -25.167332 4.8883162 226.35001
6.3155179 -6.620369 -1.944806 226.35001
24.010838 -25.169846 5.7150726 226.35001
6.9486766 -7.28409 -1.8966981 226.35001
24.013769 -25.172916 6.5547543 226.35001
6.9079552 -7.2794662 -1.6487657 226.5
7.0455918 -7.4245048 -1.4384931 226.5
7.4003201 -7.7983103 -1.2572151 226.5
11.806326 -12.441272 -1.6001564 226.5
2.9002249 -3.0561993 -1.8758694 226.5
15.105357 -15.917726 -1.0233448 226.5
2.8976562 -3.0534923 -1.7582995 226.5
23.378481 -24.635778 -0.78851712 226.5
2.8841307 -3.0392396 -1.636098 226.5
24.181896 -25.482401 0 226.5
2.8926761 -3.0482447 -1.5295141 226.5
24.080414 -25.375462 0.81219214 226.5
3.1250165 -3.2930803 -1.5340006 226.5
24.074507 -25.369236 1.6309789 226.5
3.1619973 -3.3320501 -1.4333732 226.5
24.068056 -25.36244 2.4449644 226.5
4.855473 -5.116601 -2.0226269 226.5
24.085564 -25.380888 3.2644083 226.5
5.2553978 -5.5380335 -1.9986604 226.5
24.026428 -25.318573 4.081768 226.5
5.7241888 -6.0320363 -1.9703594 226.5
24.013363 -25.304804 4.9027901 226.5
6.2941241 -6.6326227 -1.9435585 226.5
24.022295 -25.314219 5.7335544 226.5
6.9025249 -7.2737436 -1.889292 226.5
24.026253 -25.318386 6.576232 226.5
6.9636483 -7.3870606 -1.6678959 226.69
7.0508204 -7.4795332 -1.4446168 226.69
7.2517848 -7.6927171 -1.236308 226.69
11.219987 -11.902198 -1.5260288 226.69
3.0091362 -3.1921012 -1.9531493 226.69
12.985924 -13.77551 -0.8828491 226.69
2.9153643 -3.0926278 -1.7752581 226.69
12.912871 -13.698015 -0.43705925 226.69
2.8446443 -3.0176077 -1.619366 226.69
24.185062 -25.655592 0 226.69
2.8722386 -3.04688 -1.5240418 226.69
24.079796 -25.543926 0.81502384 226.69
3.1348743 -3.3254848 -1.5442444 226.69
24.075212 -25.539062 1.6367552 226.69
3.0775921 -3.2647197 -1.4000113 226.69
24.060457 -25.523411 2.4527771 226.69
4.8767228 -5.173243 -2.0386138 226.69
24.090052 -25.554804 3.2764843 226.69
5.2330227 -5.5512071 -1.9971409 226.69
24.021368 -25.481943 4.0952415 226.69
5.7241783 -6.0722265 -1.9772762 226.69
24.016262 -25.476528 4.9206042 226.69
6.2425728 -6.6221414 -1.9344103 226.69
24.026213 -25.487083 5.7546296 226.69
6.8797145 -7.2980232 -1.8896623 226.69
24.025747 -25.486591 6.5991912 226.69
6.8377142 -7.2941713 -1.6426051 226.85001
7.0664778 -7.5382066 -1.4521321 226.85001
7.0169802 -7.4854045 -1.1998367 226.85001
11.228925 -11.978521 -1.531788 226.85001
2.992713 -3.1924942 -1.9482685 226.85001
15.082989 -16.089867 -1.0284688 226.85001
2.8751631 -3.0670969 -1.7559869 226.85001
12.901918 -13.763196 -0.43798769 226.85001
2.8374805 -3.0268989 -1.6200936 226.85001
12.805544 -13.660389 0 226.85001
2.859863 -3.0507755 -1.5219896 226.85001
24.098623 -25.707346 0.81808764 226.85001
3.0322747 -3.2346969 -1.4981475 226.85001
24.092611 -25.700933 1.6428112 226.85001
3.0671577 -3.2719083 -1.3994155 226.85001
24.084604 -25.69239 2.462543 226.85001
4.8635721 -5.1882439 -2.0391653 226.85001
24.100309 -25.709146 3.2876313 226.85001
5.2267628 -5.5756798 -2.0006864 226.85001
24.037064 -25.641678 4.1101084 226.85001
5.6859035 -6.0654707 -1.9698983 226.85001
24.037132 -25.64175 4.9395318 226.85001
6.2481389 -6.6652384 -1.9418952 226.85001
24.035929 -25.640467 5.7740841 226.85001
6.8646846 -7.3229423 -1.8911434 226.85001
24.037821 -25.642485 6.6221499 226.85001
6.821558 -7.3254719 -1.6445506 227.03999
7.0576382 -7.5789914 -1.4554722 227.03999
6.8459139 -7.3516273 -1.1747482 227.03999
11.182356 -12.008405 -1.5308591 227.03999
12.264089 -13.170047 -1.2584068 227.03999
2.9260786 -3.1422303 -1.9116622 227.03999
15.041803 -16.152954 -1.0293074 227.03999
2.8448536 -3.0550053 -1.7436534 227.03999
23.267895 -24.986713 -0.79269505 227.03999
2.8210793 -3.0294747 -1.6164562 227.03999
12.831049 -13.778889 0 227.03999
2.8522921 -3.0629933 -1.5233577 227.03999
24.114075 -25.895401 0.82152283 227.03999
3.0266964 -3.2502811 -1.5007085 227.03999
24.090303 -25.869873 1.6484944 227.03999
3.2774782 -3.5195882 -1.500693 227.03999
24.08493 -25.864103 2.4713323 227.03999
4.8332386 -5.1902742 -2.0336523 227.03999
24.099062 -25.879278 3.29915 227.03999
5.2082443 -5.5929818 -2.0006864 227.03999
24.039894 -25.815741 4.1252084 227.03999
5.6763687 -6.0956864 -1.9735873 227.03999
24.024853 -25.799587 4.9545622 227.03999
6.2433333 -6.7045331 -1.9473009 227.03999
24.035501 -25.811022 5.7945113 227.03999
6.8483992 -7.3542962 -1.8933654 227.03999
24.035698 -25.811235 6.6451087 227.03999
6.9070449 -7.4615421 -1.6704898 227.21001
6.8212004 -7.3688059 -1.4112152 227.21001
7.1074519 -7.6780372 -1.2235315 227.21001
11.773001 -12.718137 -1.6168771 227.21001
2.8881958 -3.1200597 -1.8929523 227.21001
15.063025 -16.272284 -1.0340589 227.21001
2.8257475 -3.0525982 -1.7374866 227.21001
23.205879 -25.068846 -0.79311287 227.21001
24.208006 -26.151423 0 227.21001
3.0563989 -3.3017664 -1.6375924 227.21001
12.741841 -13.764755 0.43548092 227.21001
3.0093167 -3.2509043 -1.4968671 227.21001
24.104368 -26.039465 1.6547365 227.21001
3.2683179 -3.5306983 -1.5012888 227.21001
24.09347 -26.027691 2.4801216 227.21001
4.8361015 -5.2243433 -2.0413702 227.21001
24.10063 -26.035427 3.3099253 227.21001
5.2008271 -5.6183491 -2.0042319 227.21001
24.044157 -25.974421 4.1391463 227.21001
5.6661897 -6.1210709 -1.976354 227.21001
24.034304 -25.963776 4.9723763 227.21001
6.2273998 -6.727335 -1.9485483 227.21001
24.041933 -25.972017 5.8146143 227.21001
6.7838244 -7.3284292 -1.8815156 227.21001
24.047129 -25.977629 6.669549 227.21001
6.8005915 -7.3852329 -1.6494142 227.36
6.8448167 -7.43326 -1.4201223 227.36
9.185132 -9.9747705 -1.5856893 227.36
11.718081 -12.725476 -1.6139045 227.36
13.03772 -14.158563 -1.3458815 227.36
2.8490763 -3.0940092 -1.8726155 227.36
14.841736 -16.117668 -1.0217609 227.36
2.8277469 -3.0708461 -1.7436534 227.36
23.199764 -25.194229 -0.79515541 227.36
3.0325336 -3.2932382 -1.7481297 227.36
24.22481 -26.307398 0 227.36
2.9497175 -3.2033024 -1.5849214 227.36
24.119411 -26.192938 0.82667565 227.36
2.9828267 -3.2392578 -1.4879037 227.36
24.122726 -26.196539 1.6606991 227.36
24.113092 -26.186075 2.4891901 227.36
4.8224077 -5.2369866 -2.0413702 227.36
24.118717 -26.192186 3.3218155 227.36
5.1795473 -5.6248293 -2.0016994 227.36
24.060846 -26.129339 4.1537814 227.36
5.6382809 -6.1229992 -1.972204 227.36
24.049427 -26.116938 4.989634 227.36
6.2018151 -6.7349806 -1.9460534 227.36
24.060751 -26.129236 5.83569 227.36
6.8072186 -7.3924298 -1.8933654 227.36
24.057587 -26.125799 6.6913967 227.36
6.7294426 -7.3567767 -1.6380657 227.55
6.975193 -7.6254363 -1.4524105 227.55
6.9236665 -7.5691066 -1.1996044 227.55
13.029748 -14.244411 -1.3499273 227.55
2.8585315 -3.1250103 -1.8856311 227.55
14.788206 -16.166798 -1.0217609 227.55
2.8499336 -3.1156111 -1.7636954 227.55
23.159275 -25.318235 -0.79664087 227.55
3.0530319 -3.3376424 -1.7663167 227.55
24.229231 -26.487936 0 227.55
2.9086351 -3.1797848 -1.5685043 227.55
24.114742 -26.362774 0.82950735 227.55
2.9132409 -3.1848199 -1.4584531 227.55
24.119326 -26.367785 1.6664755 227.55
2.8864968 -3.1555827 -1.3344789 227.55
24.117693 -26.365999 2.4986768 227.55
4.7959318 -5.2430191 -2.0375113 227.55
24.115061 -26.363121 3.3333342 227.55
5.1530309 -5.6334085 -1.9986604 227.55
24.062557 -26.305723 4.1691132 227.55
5.6205721 -6.1445346 -1.9731262 227.55
24.050915 -26.292995 5.0080047 227.55
6.1649227 -6.7396312 -1.9414793 227.55
24.060555 -26.303534 5.8567657 227.55
6.7667484 -7.3975601 -1.8889216 227.55
24.053064 -26.295345 6.7143555 227.55
6.6172428 -7.2748051 -1.6156931 227.71001
6.9272184 -7.6155834 -1.4468435 227.71001
7.073595 -7.7765055 -1.229339 227.71001
10.30286 -11.326666 -1.4284922 227.71001
12.977838 -14.267459 -1.3486717 227.71001
2.7932403 -3.0708077 -1.8482113 227.71001
14.818284 -16.290792 -1.0269783 227.71001
3.1442196 -3.4566641 -1.9517819 227.71001
23.139608 -25.439014 -0.79840493 227.71001
3.0349245 -3.336508 -1.7612243 227.71001
24.246681 -26.656099 0 227.71001
2.9313593 -3.2226517 -1.5856054 227.71001
24.133862 -26.532068 0.83271044 227.71001
2.876287 -3.1621068 -1.4443679 227.71001
24.127602 -26.525187 1.6721587 227.71001
4.4655328 -4.9092774 -2.0708253 227.71001
24.132576 -26.530655 2.5078847 227.71001
4.7955017 -5.2720356 -2.0435753 227.71001
24.131123 -26.529058 3.3457818 227.71001
5.1398835 -5.6506391 -1.9996735 227.71001
24.07856 -26.471272 4.1846771 227.71001
5.6151772 -6.1731629 -1.9772762 227.71001
24.065353 -26.456753 5.0263758 227.71001
6.155293 -6.7669506 -1.9443902 227.71001
24.0627 -26.453836 5.8752475 227.71001
6.722259 -7.3902569 -1.8822562 227.71001
24.073437 -26.465641 6.7406473 227.71001
6.7650871 -7.4870706 -1.6578444 227.89999
6.866075 -7.5988359 -1.4393282 227.89999
7.0184689 -7.7674937 -1.2242284 227.89999
13.018734 -14.408118 -1.3578795 227.89999
2.7536435 -3.0475175 -1.8286879 227.89999
14.793647 -16.372454 -1.0290279 227.89999
3.0374708 -3.3616354 -1.8924267 227.89999
23.111423 -25.577919 -0.8003546 227.89999
2.9713852 -3.2884972 -1.7306702 227.89999
24.23324 -26.819458 0 227.89999
2.9219165 -3.2337492 -1.5862894 227.89999
24.130196 -26.705418 0.83563501 227.89999
2.8759477 -3.1828742 -1.4494897 227.89999
24.133266 -26.708815 1.6786804 227.89999
4.4492283 -4.9240584 -2.0708253 227.89999
24.148796 -26.726002 2.5187666 227.89999
4.7818594 -5.2921886 -2.0452292 227.89999
24.127127 -26.702019 3.357486 227.89999
5.1211171 -5.6676526 -1.9996735 227.89999
24.078543 -26.648251 4.2000093 227.89999
5.6220746 -6.2220731 -1.9869597 227.89999
24.06645 -26.634869 5.0450249 227.89999
6.152492 -6.8090982 -1.9506274 227.89999
24.068787 -26.637453 5.8982687 227.89999
6.6977153 -7.4125085 -1.8822562 227.89999
24.073826 -26.64303 6.7654576 227.89999
6.7521572 -7.5122037 -1.4195657 228.05
6.8361044 -7.6055999 -1.1958876 228.05
11.4109 -12.695351 -1.5925393 228.05
13.023648 -14.489635 -1.3623439 228.05
2.7786329 -3.0914054 -1.8506517 228.05
15.064578 -16.7603 -1.0509222 228.05
2.9657423 -3.2995768 -1.8531135 228.05
13.069309 -14.540436 -0.45391029 228.05
2.9478211 -3.2796383 -1.7219405 228.05
24.25787 -26.988419 0 228.05
2.8569055 -3.1784887 -1.5555077 228.05
24.149752 -26.868132 0.8387453 228.05
2.9182694 -3.2467599 -1.4750991 228.05
24.160753 -26.880371 1.6854815 228.05
4.4363222 -4.9356899 -2.0708253 228.05
24.18144 -26.903387 2.5295093 228.05
4.7577066 -5.2932506 -2.0408189 228.05
24.158308 -26.877649 3.3716056 228.05
5.1101418 -5.6853571 -2.001193 228.05
24.095011 -26.807228 4.2151089 228.05
5.6005621 -6.2309809 -1.9851153 228.05
24.074751 -26.784689 5.0614471 228.05
6.133337 -6.8237271 -1.9502116 228.05
24.086039 -26.797247 5.9196687 228.05
6.7229571 -7.4797168 -1.8948466 228.05
24.085451 -26.796593 6.7884164 228.05
6.6193304 -7.4137278 -1.6328778 228.24001
6.7206135 -7.5271664 -1.4181739 228.24001
7.0344338 -7.8786488 -1.2351465 228.24001
11.665821 -13.065857 -1.6341549 228.24001
12.979513 -14.537208 -1.3627625 228.24001
2.8219082 -3.1605704 -1.8864446 228.24001
15.124677 -16.939816 -1.0590277 228.24001
2.8773503 -3.2226663 -1.8045503 228.24001
2.864964 -3.2087934 -1.6797467 228.24001
24.25482 -27.165684 0 228.24001
2.8476012 -3.189347 -1.5561917 228.24001
24.145748 -27.043522 0.84171623 228.24001
4.1265111 -4.6217413 -2.093565 228.24001
24.156637 -27.055719 1.6914443 228.24001
4.4224734 -4.9532223 -2.0720167 228.24001
24.17979 -27.081652 2.538717 228.24001
4.7542119 -5.3247738 -2.0468831 228.24001
24.148621 -27.04674 3.3827527 228.24001
5.0861058 -5.6964984 -1.999167 228.24001
24.089331 -26.980335 4.229744 228.24001
5.5954223 -6.2669392 -1.9906486 228.24001
24.075493 -26.964836 5.0803747 228.24001
6.1132812 -6.8469467 -1.9510432 228.24001
24.085108 -26.975605 5.9413924 228.24001
6.6693187 -7.4697156 -1.8866998 228.24001
24.082851 -26.973078 6.8128567 228.24001
6.6352949 -7.4761405 -1.6422808 228.41
6.648293 -7.4907856 -1.4075967 228.41
6.6154447 -7.4537749 -1.1654561 228.41
10.29722 -11.602117 -1.4472563 228.41
12.961486 -14.604006 -1.3654132 228.41
2.740962 -3.0883055 -1.8384496 228.41
14.53991 -16.382454 -1.0214814 228.41
2.8665507 -3.229809 -1.8037794 228.41
13.070598 -14.726945 -0.45715982 228.41
2.8096747 -3.1657255 -1.6528301 228.41
24.267042 -27.342237 0 228.41
2.7670166 -3.1176617 -1.5172013 228.41
24.150345 -27.210752 0.84468722 228.41
2.6739359 -3.0127854 -1.3611374 228.41
24.163782 -27.225891 1.6975932 228.41
4.4166288 -4.9763179 -2.0761869 228.41
24.209253 -27.277126 2.5502968 228.41
4.7141452 -5.3115363 -2.0364089 228.41
24.154186 -27.21508 3.3948286 228.41
5.0627599 -5.704329 -1.9966345 228.41
24.102795 -27.157175 4.2462373 228.41
5.5742197 -6.280602 -1.9897264 228.41
24.079521 -27.130953 5.0981889 228.41
6.1046262 -6.8782234 -1.9547857 228.41
24.094046 -27.14732 5.9634409 228.41
6.6823516 -7.52916 -1.8966981 228.41
24.113609 -27.169361 6.8443322 228.41
6.6640162 -7.5508685 -1.6546019 228.57001
6.5644436 -7.438045 -1.3942361 228.57001
7.9800363 -9.0420256 -1.4103018 228.57001
11.732684 -13.294079 -1.6542196 228.57001
11.728526 -13.289368 -1.2394331 228.57001
2.6319807 -2.9822469 -1.7709314 228.57001
2.877059 -3.2599401 -1.816113 228.57001
13.511012 -15.309069 -0.47405726 228.57001
2.6874096 -3.0450523 -1.5859021 228.57001
24.279263 -27.510366 0 228.57001
2.6774659 -3.0337853 -1.4727387 228.57001
24.164232 -27.380026 0.84784389 228.57001
2.6692734 -3.0245025 -1.3630581 228.57001
24.172264 -27.38913 1.7035559 228.57001
4.4039783 -4.9900632 -2.0767827 228.57001
24.238602 -27.464294 2.5614576 228.57001
4.6929336 -5.3174729 -2.0336523 228.57001
24.172966 -27.389925 3.408205 228.57001
5.0519319 -5.724247 -1.9986604 228.57001
24.113617 -27.322676 4.261569 228.57001
5.5553713 -6.2946849 -1.9892653 228.57001
24.100641 -27.307974 5.1187868 228.57001
6.0853949 -6.8952441 -1.9547857 228.57001
24.097803 -27.304758 5.9832196 228.57001
6.6899118 -7.5802107 -1.9048448 228.57001
24.090965 -27.29701 6.8595147 228.57001
6.5270505 -7.4400549 -1.6260687 228.74001
6.5305905 -7.4440899 -1.391731 228.74001
11.743092 -13.385716 -1.6612793 228.74001
12.946893 -14.757905 -1.3728074 228.74001
2.5688989 -2.9282367 -1.7343251 228.74001
13.376802 -15.247951 -0.94592309 228.74001
2.7967849 -3.1879992 -1.7714039 228.74001
2.6980207 -3.0754201 -1.5975417 228.74001
24.281944 -27.678505 0 228.74001
2.6734104 -3.0473671 -1.475475 228.74001
24.177826 -27.559822 0.85118628 228.74001
2.7739968 -3.1620235 -1.4213195 228.74001
24.176533 -27.558348 1.7096118 228.74001
3.0394194 -3.4645736 -1.4381393 228.74001
24.246477 -27.638077 2.5709445 228.74001
4.6847429 -5.340045 -2.0369601 228.74001
24.178267 -27.560326 3.4204669 228.74001
5.0400295 -5.745029 -2.0006864 228.74001
24.125454 -27.500124 4.2780623 228.74001
5.5084352 -6.2789555 -1.9791207 228.74001
24.113552 -27.486557 5.1388278 228.74001
6.0791006 -6.9294457 -1.9593598 228.74001
24.114296 -27.487404 6.0075378 228.74001
6.6984987 -7.6354856 -1.9137321 228.74001
24.087637 -27.457016 6.8817329 228.74001
6.6138759 -7.5869727 -1.6536293 228.92
6.6125879 -7.5854955 -1.4142771 228.92
8.0329952 -9.2148867 -1.4295828 228.92
11.741547 -13.469075 -1.6670387 228.92
12.934552 -14.837608 -1.3764347 228.92
2.6161153 -3.0010233 -1.7725583 228.92
13.365592 -15.332067 -0.94853175 228.92
2.7297592 -3.1313877 -1.7351741 228.92
13.376513 -15.344594 -0.47261819 228.92
2.6883457 -3.0838809 -1.5975417 228.92
24.282923 -27.855659 0 228.92
2.7095175 -3.1081676 -1.5007844 228.92
24.179155 -27.736624 0.85429651 228.92
2.795176 -3.206429 -1.4373252 228.92
24.181732 -27.73958 1.7161335 228.92
4.3683953 -5.011116 -2.0743997 228.92
24.242125 -27.808859 2.5797338 228.92
4.6641536 -5.3503885 -2.0353062 228.92
24.17662 -27.733717 3.4325428 228.92
5.0244989 -5.763751 -2.0016994 228.92
24.129009 -27.6791 4.2940912 228.92
5.4720573 -6.2771592 -1.9731262 228.92
24.110373 -27.657722 5.156642 228.92
6.0675855 -6.9603066 -1.9626864 228.92
24.118601 -27.66716 6.0302348 228.92
6.6783528 -7.6609364 -1.914843 228.92
24.08779 -27.631817 6.9065433 228.92
6.7632275 -7.8049302 -1.6967533 229.09
6.9896312 -8.066206 -1.2481554 229.09
11.736741 -13.544487 -1.6720549 229.09
12.911376 -14.900044 -1.378667 229.09
2.7447987 -3.1675649 -1.8661077 229.09
13.300418 -15.349009 -0.94713426 229.09
2.8026381 -3.234313 -1.7875917 229.09
13.306047 -15.355505 -0.47173619 229.09
2.6755238 -3.08762 -1.5953593 229.09
24.273512 -28.012228 0 229.09
2.7852056 -3.2141957 -1.5479832 229.09
24.189718 -27.915529 0.8575924 229.09
2.7682784 -3.1946611 -1.428362 229.09
24.194828 -27.921425 1.7229346 229.09
4.3547583 -5.0254979 -2.0749955 229.09
24.24966 -27.984703 2.5893602 229.09
4.6570711 -5.3743744 -2.0391653 229.09
24.186815 -27.912178 3.4457335 229.09
5.0048413 -5.7757096 -2.0006864 229.09
24.137838 -27.855658 4.3103523 229.09
5.4763489 -6.3198409 -1.9814262 229.09
24.120293 -27.835409 5.1764045 229.09
6.035377 -6.964973 -1.958944 229.09
24.124289 -27.840021 6.0522833 229.09
6.653019 -7.6777468 -1.9141023 229.09
24.11124 -27.824963 6.9369082 229.09
6.5970244 -7.6616302 -1.6610868 229.27
6.6759725 -7.7533188 -1.4379364 229.27
8.0582132 -9.3586206 -1.4442178 229.27
11.700629 -13.588838 -1.6729838 229.27
12.871012 -14.948093 -1.3793645 229.27
2.7908657 -3.2412465 -1.904341 229.27
13.197382 -15.327131 -0.94322121 229.27
2.8514674 -3.3116279 -1.825363 229.27
13.069873 -15.179046 -0.46505147 229.27
2.9137928 -3.384011 -1.7437649 229.27
24.27413 -28.191408 0 229.27
2.7064221 -3.1431754 -1.5096769 229.27
24.185398 -28.088356 0.8605634 229.27
2.6976488 -3.1329865 -1.3969905 229.27
24.187813 -28.091162 1.728711 229.27
4.3352118 -5.0348134 -2.0732083 229.27
24.256657 -28.171116 2.5995448 229.27
4.6414185 -5.3904352 -2.0397165 229.27
24.191261 -28.095167 3.4589241 229.27
4.9955087 -5.8016672 -2.0042319 229.27
24.137051 -28.032209 4.3259168 229.27
5.4450388 -6.3237414 -1.9772762 229.27
