# .PCD v0.7 - Point Cloud Data file format
VERSION 0.7
FIELDS x y z intensity
SIZE 4 4 4 4
TYPE F F F F
COUNT 1 1 1 1
WIDTH 1201
HEIGHT 1
VIEWPOINT 0 0 0 1 0 0 0
POINTS 1201
DATA ascii
-6.9634895 2.8261642 -2.1549327 22.09
-7.7340336 3.1388931 -2.1850536 22.09
-8.6899118 3.5268409 -2.2221301 22.09
-9.7830982 3.9705155 -2.2441988 22.09
-11.170914 4.5337667 -2.271446 22.09
-11.966127 4.9003487 -2.1244273 22.27
-13.925649 5.7028089 -2.1148744 22.27
-15.30376 6.2671704 -1.9339092 22.27
-15.144245 6.2018461 -1.5267719 22.27
-37.734844 15.453111 -2.8513656 22.27
-4.2878814 1.7559662 -2.0629683 22.27
-49.344666 20.207546 -2.4866233 22.27
-4.5547628 1.8652588 -2.055846 22.27
-4.9083343 2.0100529 -2.07113 22.27
-5.3010774 2.1708884 -2.0849547 22.27
-5.7599945 2.3588233 -2.1031687 22.27
-6.2968702 2.5786841 -2.1232512 22.27
-6.9581347 2.8494837 -2.1560354 22.27
-7.725925 3.163908 -2.18556 22.27
-8.6787891 3.5541236 -2.2221301 22.27
-9.7741976 4.0027132 -2.2450304 22.27
-11.163891 4.5718184 -2.272927 22.27
-11.947887 4.9343247 -2.1237788 22.440001
-13.903175 5.7418337 -2.1140394 22.440001
-15.371392 6.3481884 -1.9448273 22.440001
-26.997433 11.149595 -2.7250779 22.440001
-37.760746 15.594706 -2.8568065 22.440001
-4.2809639 1.7679834 -2.0621548 22.440001
-48.963192 20.221172 -2.4704123 22.440001
-4.5543256 1.8808782 -2.0581586 22.440001
-4.9006267 2.0238962 -2.0704024 22.440001
-5.3032985 2.1901946 -2.0883751 22.440001
-5.7529702 2.3759031 -2.1031687 22.440001
-6.2838979 2.5951695 -2.121464 22.440001
-6.9425416 2.8671811 -2.1538303 22.440001
-7.7093501 3.1838632 -2.1835339 22.440001
-8.6592121 3.576144 -2.2198246 22.440001
-9.7514286 4.0272155 -2.2425356 22.440001
-11.150277 4.6049218 -2.272927 22.440001
-11.937792 4.974113 -2.1247516 22.620001
-13.885068 5.7854834 -2.1140394 22.620001
-15.0638 6.2766252 -1.5224988 22.620001
-37.713409 15.714025 -2.8569462 22.620001
-4.2770753 1.7821264 -2.0629683 22.620001
-48.820126 20.341854 -2.4664061 22.620001
-4.5466905 1.894467 -2.0573876 22.620001
-4.8925247 2.0385654 -2.069675 22.620001
-5.2877173 2.2032301 -2.0849547 22.620001
-5.7454777 2.393965 -2.1031687 22.620001
-6.2757139 2.614898 -2.121464 22.620001
-6.9334998 2.8889775 -2.1538303 22.620001
-7.6957378 3.2065787 -2.1825211 22.620001
-8.6551208 3.6063242 -2.221669 22.620001
-9.7297001 4.0540686 -2.2404563 22.620001
-11.117613 4.6323695 -2.2692242 22.620001
-11.918396 5.0051374 -2.1237788 22.780001
-13.867032 5.8234687 -2.1137609 22.780001
-15.05506 6.3223815 -1.9095175 22.780001
-26.83165 11.267967 -2.7150455 22.780001
-37.671219 15.820051 -2.8570857 22.780001
-4.2703972 1.7933559 -2.0621548 22.780001
-48.766815 20.479654 -2.4665926 22.780001
-4.539681 1.9064418 -2.0566168 22.780001
-77.600288 32.588287 -1.9540703 22.780001
-4.8833776 2.0507772 -2.0682201 22.780001
-5.2815442 2.2179878 -2.0849547 22.780001
-5.73877 2.4100001 -2.1031687 22.780001
-6.2666268 2.6316738 -2.1208682 22.780001
-6.9236326 2.9075837 -2.1532791 22.780001
-7.6885371 3.2288058 -2.1830275 22.780001
-8.6396332 3.6282191 -2.2202857 22.780001
-9.723752 4.0834956 -2.2417037 22.780001
-11.110069 4.6656804 -2.270335 22.780001
-11.894406 5.0366306 -2.1221576 22.950001
-13.847869 5.8638148 -2.1134827 22.950001
-15.533508 6.5775909 -1.5737752 22.950001
-37.675556 15.953537 -2.860992 22.950001
-4.2667398 1.806731 -2.0629683 22.950001
-48.79414 20.66165 -2.4710646 22.950001
-4.5289063 1.917744 -2.0543044 22.950001
-4.8789868 2.065984 -2.0689476 22.950001
-5.2732096 2.2329159 -2.0842707 22.950001
-5.7298493 2.4262779 -2.1025283 22.950001
-6.2535167 2.6480222 -2.119081 22.950001
-6.9114347 2.9266145 -2.1521764 22.950001
-7.6789231 3.2516038 -2.1830275 22.950001
-8.6306219 3.6545963 -2.2207468 22.950001
-9.7115936 4.1123285 -2.2417037 22.950001
-11.088938 4.6955585 -2.2688537 22.950001
-11.893002 5.0752482 -2.1244273 23.110001
-13.829618 5.9016852 -2.1132045 23.110001
-15.27053 6.5165834 -1.9415751 23.110001
-26.74799 11.414503 -2.7131877 23.110001
-37.669395 16.07513 -2.8639219 23.110001
-4.2599974 1.8179218 -2.0621548 23.110001
-48.844666 20.844091 -2.4765613 23.110001
-4.5320201 1.9340054 -2.0581586 23.110001
-4.8697715 2.0781381 -2.0674925 23.110001
-5.2652249 2.2468951 -2.0835867 23.110001
-5.7213087 2.4415255 -2.1018882 23.110001
-6.2460976 2.6654749 -2.119081 23.110001
-6.9050031 2.9466579 -2.1527278 23.110001
-7.6626949 3.2699971 -2.1810014 23.110001
-8.6150131 3.6763916 -2.2193635 23.110001
-9.7000713 4.1394324 -2.2417037 23.110001
-11.07759 4.7272778 -2.2692242 23.110001
-11.881543 5.1170011 -2.1254001 23.299999
-13.799057 5.9428129 -2.1115344 23.299999
-15.475069 6.6646175 -1.9703804 23.299999
-17.568897 7.5663629 -1.7846398 23.299999
-37.636036 16.208639 -2.8654563 23.299999
-4.2556238 1.832761 -2.0629683 23.299999
-48.7239 20.983826 -2.4739525 23.299999
-4.5306668 1.9512134 -2.0604711 23.299999
-4.8731194 2.0986969 -2.0718575 23.299999
-5.254293 2.262856 -2.0822186 23.299999
-5.7149215 2.4612339 -2.1025283 23.299999
-6.2407312 2.6876836 -2.1202724 23.299999
-6.8951941 2.9695396 -2.1527278 23.299999
-7.6535864 3.296155 -2.1815081 23.299999
-8.6009865 3.70417 -2.2189023 23.299999
-9.6773081 4.167707 -2.2396247 23.299999
-11.063658 4.7647638 -2.2695944 23.299999
-11.843673 5.1399465 -2.1211848 23.459999
-13.786041 5.9829011 -2.1120911 23.459999
-15.385329 6.6769638 -1.9613206 23.459999
-26.652191 11.566585 -2.7105865 23.459999
-37.623569 16.327972 -2.8679676 23.459999
-4.2488132 1.8439105 -2.0621548 23.459999
-48.758579 21.16037 -2.4787042 23.459999
-4.5201216 1.9616536 -2.0581586 23.459999
-4.863822 2.1108136 -2.0704024 23.459999
-5.2531252 2.2797644 -2.0842707 23.459999
-5.7062879 2.476429 -2.1018882 23.459999
-6.2261958 2.70206 -2.1178894 23.459999
-6.8815837 2.9864869 -2.1510739 23.459999
-7.6372523 3.3144338 -2.179482 23.459999
-8.5923948 3.7289488 -2.2193635 23.459999
-9.6638365 4.1939363 -2.2392089 23.459999
-11.048507 4.7948585 -2.2692242 23.459999
-11.849162 5.1866255 -2.1250758 23.639999
-13.770806 6.0277696 -2.1126478 23.639999
-15.418871 6.7491617 -1.9682897 23.639999
-26.646734 11.663832 -2.7137449 23.639999
-37.625092 16.46929 -2.8720136 23.639999
-4.2413254 1.8565167 -2.0613413 23.639999
-48.776047 21.350296 -2.4829898 23.639999
-4.5105553 1.9743643 -2.0566168 23.639999
-4.8503399 2.123095 -2.0674925 23.639999
-5.2390504 2.293242 -2.0815346 23.639999
-5.6915369 2.4913046 -2.0993273 23.639999
-6.2159276 2.7208414 -2.1172936 23.639999
-6.8668838 3.0057786 -2.14942 23.639999
-7.6303468 3.3399622 -2.180495 23.639999
-8.5788546 3.7551439 -2.2189023 23.639999
-9.6488218 4.2234907 -2.2387931 23.639999
-11.029787 4.8279686 -2.2684834 23.639999
-11.819276 5.2153859 -2.1224818 23.809999
-13.743801 6.0646043 -2.1112559 23.809999
-15.358795 6.7772379 -1.9631791 23.809999
-26.530025 11.706667 -2.7053847 23.809999
-37.621696 16.600988 -2.8755014 23.809999
-4.2324553 1.8676176 -2.0597143 23.809999
-49.0159 21.628807 -2.4984555 23.809999
-4.5029888 1.9869937 -2.055846 23.809999
-4.8406105 2.1359727 -2.0660377 23.809999
-5.233943 2.309535 -2.0822186 23.809999
-5.6910539 2.5112405 -2.1018882 23.809999
-6.2095737 2.7400432 -2.1178894 23.809999
-6.8561764 3.0253637 -2.1488688 23.809999
-7.6133227 3.359463 -2.1784689 23.809999
-8.5676746 3.7805812 -2.2189023 23.809999
-9.6362476 4.2521009 -2.2387931 23.809999
-11.011818 4.859086 -2.2677429 23.809999
-11.804636 5.253294 -2.1228061 23.99
-13.730109 6.1101675 -2.1120911 23.99
-14.812932 6.5920444 -1.896044 23.99
-26.525864 11.804529 -2.7087288 23.99
-37.596699 16.731266 -2.877594 23.99
-4.2282362 1.8816479 -2.0605278 23.99
-48.874699 21.750196 -2.4947288 23.99
-4.4950385 2.00038 -2.0550752 23.99
-4.8389826 2.1534419 -2.0682201 23.99
-5.2266612 2.3259666 -2.0822186 23.99
-5.6779432 2.5267959 -2.0999675 23.99
-6.1922135 2.7556562 -2.1149106 23.99
-6.8448815 3.0461063 -2.1483176 23.99
-7.6009636 3.3825777 -2.1779625 23.99
-8.5557556 3.8074787 -2.2189023 23.99
-9.6192675 4.2807622 -2.2379615 23.99
-10.996498 4.8936567 -2.2677429 23.99
-11.786319 5.2846236 -2.1221576 24.15
-13.707571 6.1460543 -2.1112559 24.15
-15.303315 6.861537 -1.5646718 24.15
-37.584419 16.8517 -2.8802447 24.15
-4.2246323 1.8941956 -2.0613413 24.15
-48.784603 21.873518 -2.4932382 24.15
-4.4928026 2.0144348 -2.0566168 24.15
-4.8278499 2.1646597 -2.0660377 24.15
-5.218431 2.3397841 -2.0815346 24.15
-5.667407 2.5410914 -2.0986869 24.15
-6.1932049 2.7768431 -2.1178894 24.15
-6.8363485 3.0652089 -2.1483176 24.15
-7.5950189 3.4053733 -2.1789756 24.15
-8.536211 3.8273749 -2.2165968 24.15
-9.6054907 4.306807 -2.2375457 24.15
-10.986377 4.9259539 -2.2684834 24.15
-11.781377 5.3244476 -2.1241031 24.32
-13.69469 6.1891456 -2.1120911 24.32
-15.326825 6.9267683 -1.9668959 24.32
-15.15042 6.8470449 -1.5511096 24.32
-37.514256 16.954102 -2.8787103 24.32
-4.2173285 1.9059695 -2.0605278 24.32
-48.755898 22.034624 -2.4951015 24.32
-4.4918509 2.0300364 -2.0589294 24.32
-4.8248014 2.1805093 -2.0674925 24.32
-5.2114654 2.3552573 -2.0815346 24.32
-5.6598425 2.5578957 -2.0986869 24.32
-6.1779795 2.7920613 -2.1155064 24.32
-6.8272238 3.0854793 -2.1483176 24.32
-7.5813556 3.4262996 -2.1779625 24.32
-8.5230436 3.8518841 -2.2161355 24.32
-9.5873213 4.332871 -2.2362981 24.32
-10.977085 4.9609575 -2.2695944 24.32
-11.758344 5.3561077 -2.1228061 24.49
-13.672661 6.2281089 -2.1115344 24.49
-26.369287 12.01162 -2.703341 24.49
-4.2099924 1.9177167 -2.0597143 24.49
-48.946655 22.295961 -2.5082381 24.49
-4.4824491 2.0418251 -2.0573876 24.49
-4.8183107 2.1948152 -2.0674925 24.49
-5.1959028 2.3668144 -2.0781145 24.49
-5.6556768 2.5762484 -2.0999675 24.49
-6.1696682 2.8103795 -2.1155064 24.49
-6.8127904 3.1033316 -2.1466637 24.49
-7.5658736 3.4463727 -2.1764429 24.49
-8.5115776 3.8771555 -2.2161355 24.49
-9.5744238 4.3612981 -2.2362981 24.49
-10.967684 4.9959497 -2.2707052 24.49
-11.741459 5.3930211 -2.1228061 24.67
-13.644029 6.2668986 -2.1101425 24.67
-15.251733 7.0053406 -1.9627146 24.67
-26.311518 12.085258 -2.7012975 24.67
-4.2122483 1.9347464 -2.0637817 24.67
-48.838245 22.43211 -2.5062816 24.67
-4.4760122 2.055897 -2.0573876 24.67
-4.8063126 2.2076087 -2.06531 24.67
-5.1952729 2.3862636 -2.0808506 24.67
-5.6458335 2.5932126 -2.0993273 24.67
-6.1608086 2.8297482 -2.1155064 24.67
-6.8082485 3.1271265 -2.1483176 24.67
-7.5479765 3.4668944 -2.174417 24.67
-8.49405 3.9014392 -2.2147522 24.67
-9.5571194 4.3897223 -2.2354665 24.67
-10.955506 5.0320215 -2.271446 24.67
-11.718242 5.4245186 -2.1215091 24.84
-13.628969 6.3090177 -2.1106992 24.84
-26.248436 12.150725 -2.6985106 24.84
-37.11985 17.183235 -2.8602943 24.84
-4.2048316 1.9464684 -2.0629683 24.84
-48.831303 22.604612 -2.509356 24.84
-4.4732423 2.070719 -2.0589294 24.84
-4.7997413 2.2218595 -2.06531 24.84
-5.177937 2.3969309 -2.0767462 24.84
-50.135895 23.208523 1.2826749 24.84
-5.6346755 2.6083608 -2.0980468 24.84
-6.1523852 2.8480151 -2.1155064 24.84
-6.7937059 3.1448903 -2.1466637 24.84
-7.5376568 3.4892743 -2.174417 24.84
-8.4859686 3.9282596 -2.2156744 24.84
-9.5422773 4.4172378 -2.2350507 24.84
-10.928042 5.0587258 -2.2688537 24.84
-11.70293 5.4621406 -2.1218333 25.02
-13.605493 6.3501282 -2.1101425 25.02
-15.304058 7.1429043 -1.9750265 25.02
-26.193893 12.225547 -2.6968386 25.02
-36.774609 17.163912 -2.8378329 25.02
-4.1937289 1.9573504 -2.0605278 25.02
-48.83427 22.792551 -2.513176 25.02
-4.4633703 2.0832009 -2.0573876 25.02
-4.7826085 2.2321999 -2.0609453 25.02
-49.150131 22.939972 0 25.02
-5.1720843 2.4139807 -2.0774302 25.02
-5.6247363 2.6252484 -2.0974066 25.02
-6.1364875 2.8640995 -2.1131234 25.02
-6.7803082 3.1645916 -2.1455612 25.02
-7.5266581 3.5129373 -2.174417 25.02
-8.4718227 3.9540765 -2.2152133 25.02
-9.5265808 4.4463668 -2.2346349 25.02
-10.894286 5.0847197 -2.2651508 25.02
-11.685846 5.4939604 -2.1215091 25.18
-13.582329 6.3855691 -2.1093075 25.18
-15.012599 7.0579934 -1.9399489 25.18
-15.0928 7.0956988 -1.5559399 25.18
-36.685009 17.247017 -2.8346241 25.18
-4.1915536 1.9706085 -2.0621548 25.18
-48.896992 22.988333 -2.5196977 25.18
-4.467556 2.1003678 -2.0620127 25.18
-49.230076 23.14493 -1.2629921 25.18
-4.7831001 2.2487171 -2.0638552 25.18
-5.1687245 2.4300139 -2.0787985 25.18
-5.6156688 2.6401393 -2.0967662 25.18
-6.1267376 2.8804121 -2.1125276 25.18
-6.7714448 3.1835134 -2.1455612 25.18
-7.5133166 3.5322957 -2.173404 25.18
-8.4554634 3.9752347 -2.21383 25.18
-9.5070448 4.4696231 -2.2329717 25.18
-10.880045 5.1151223 -2.2651508 25.18
-11.670312 5.5314903 -2.1218333 25.360001
-13.565781 6.429904 -2.1098642 25.360001
-14.992146 7.1059728 -1.9401813 25.360001
-26.061504 12.352622 -2.6907077 25.360001
-36.64687 17.369871 -2.8358798 25.360001
-4.1869931 1.9845494 -2.0629683 25.360001
-48.810089 23.134989 -2.5189521 25.360001
-4.4509296 2.1096501 -2.0573876 25.360001
-4.7726455 2.2621367 -2.0624001 25.360001
-5.1593666 2.4454348 -2.0781145 25.360001
-5.6090589 2.6585798 -2.0974066 25.360001
-6.1107578 2.8963747 -2.1101446 25.360001
-6.7561984 3.2023005 -2.1439073 25.360001
-7.4934406 3.5517385 -2.1708715 25.360001
-8.4394169 4.0001116 -2.2129078 25.360001
-9.4876528 4.4969544 -2.231724 25.360001
-10.853265 5.144227 -2.262929 25.360001
-11.654819 5.5640583 -2.1218333 25.52
-13.545985 6.4669085 -2.1095858 25.52
-14.866478 7.0973172 -1.9264755 25.52
-25.99995 12.412483 -2.687921 25.52
-36.432579 17.393061 -2.8230445 25.52
-4.1781368 1.9946597 -2.0613413 25.52
-48.76873 23.282391 -2.5201633 25.52
-4.451683 2.1252515 -2.0604711 25.52
-68.644165 32.771008 -1.7660165 25.52
-4.7679906 2.2762582 -2.0631278 25.52
-5.1440377 2.4557846 -2.0746942 25.52
-5.5947733 2.6709676 -2.0948455 25.52
-6.1095371 2.916718 -2.1125276 25.52
-6.7454944 3.2203267 -2.1433561 25.52
-7.4834933 3.5726502 -2.1708715 25.52
-8.4247007 4.0219865 -2.2119856 25.52
-9.4821205 4.526803 -2.2333875 25.52
-10.838858 5.1745148 -2.262929 25.52
-11.635504 5.5997896 -2.1215091 25.700001
-13.527387 6.5102916 -2.1098642 25.700001
-25.962622 12.494967 -2.6881068 25.700001
-36.255508 17.448597 -2.8135576 25.700001
-4.1718502 2.0077758 -2.0613413 25.700001
-48.837563 23.503931 -2.5275235 25.700001
-4.4366698 2.1352248 -2.0566168 25.700001
-4.7591376 2.2904181 -2.0624001 25.700001
-5.1430712 2.475193 -2.0774302 25.700001
-5.593184 2.6918178 -2.0974066 25.700001
-6.0917425 2.9317577 -2.109549 25.700001
-6.7422738 3.2448373 -2.1455612 25.700001
-7.4757195 3.5978208 -2.1718845 25.700001
-8.4137774 4.0492773 -2.2124467 25.700001
-9.4537497 4.5497823 -2.2300608 25.700001
-10.822548 5.2085404 -2.262929 25.700001
-11.616269 5.6305389 -2.1208606 25.860001
-13.507371 6.5471778 -2.1095858 25.860001
-15.017155 7.2789874 -1.9515641 25.860001
-25.889997 12.549179 -2.6842053 25.860001
-36.203053 17.548033 -2.8132787 25.860001
-4.167871 2.0202148 -2.0621548 25.860001
-48.80769 23.657648 -2.529387 25.860001
-4.4306898 2.1476061 -2.0566168 25.860001
-4.7527227 2.3036993 -2.0624001 25.860001
-5.1378303 2.490365 -2.0781145 25.860001
-5.5805302 2.704947 -2.0954859 25.860001
-6.0852494 2.9495902 -2.1101446 25.860001
-6.7245359 3.2594597 -2.1428049 25.860001
-7.4621611 3.6169951 -2.1708715 25.860001
-8.3901777 4.0668154 -2.2092187 25.860001
-9.4462891 4.5787244 -2.2313082 25.860001
-10.804423 5.2370281 -2.2621882 25.860001
-11.60108 5.6707621 -2.1215091 26.049999
-13.487365 6.5928035 -2.1098642 26.049999
-16.534882 8.0824699 -2.1522725 26.049999
-14.942172 7.3039327 -1.5516669 26.049999
-36.139282 17.665361 -2.81286 26.049999
-4.1562243 2.0316179 -2.0597143 26.049999
-48.85461 23.880785 -2.5359087 26.049999
-4.4185696 2.1598556 -2.0543044 26.049999
-4.7450576 2.3194473 -2.0624001 26.049999
-48.958019 23.93133 0 26.049999
-5.1211014 2.5032623 -2.0746942 26.049999
-5.5681252 2.7217736 -2.0942054 26.049999
-6.0771503 2.9705918 -2.1107404 26.049999
-6.7102361 3.2800527 -2.1417022 26.049999
-7.4501257 3.6417205 -2.1708715 26.049999
-8.3818913 4.0971799 -2.2106023 26.049999
-9.4205074 4.6048694 -2.2288134 26.049999
-10.783466 5.2711015 -2.2614477 26.049999
-11.573581 5.6999264 -2.1195636 26.219999
-13.465968 6.631917 -2.1095858 26.219999
-14.981816 7.3784642 -1.9529579 26.219999
-25.785627 12.699284 -2.6816044 26.219999
-36.072392 17.765459 -2.811744 26.219999
-4.1485391 2.0431335 -2.0589008 26.219999
-48.806843 24.037109 -2.5371199 26.219999
-4.4171085 2.1754024 -2.0566168 26.219999
-4.7398257 2.3343389 -2.0631278 26.219999
-5.1136513 2.518446 -2.0746942 26.219999
-5.5583253 2.7374454 -2.093565 26.219999
-6.0631714 2.9860795 -2.1089532 26.219999
-6.6953001 3.2973995 -2.1400485 26.219999
-7.4340806 3.6612449 -2.1693518 26.219999
-8.36446 4.119452 -2.2092187 26.219999
-9.4050484 4.6319361 -2.2283976 26.219999
-10.762489 5.3004684 -2.2603369 26.219999
-11.560153 5.7359953 -2.1202121 26.389999
-13.435586 6.6665606 -2.1079159 26.389999
-14.436699 7.1632991 -1.8846612 26.389999
-25.71751 12.760689 -2.6784461 26.389999
-36.037392 17.881279 -2.813139 26.389999
-4.1440954 2.0562453 -2.0597143 26.389999
-48.849842 24.238647 -2.5430825 26.389999
-4.4073281 2.1868579 -2.0550752 26.389999
-4.7228656 2.3434236 -2.0587628 26.389999
-5.1078401 2.5344427 -2.0753782 26.389999
-5.5467839 2.7522409 -2.0922847 26.389999
-6.0542846 3.004056 -2.1089532 26.389999
-6.6906538 3.319814 -2.1417022 26.389999
-7.4231849 3.6832862 -2.1693518 26.389999
-8.3556871 4.1459818 -2.2101412 26.389999
-9.3860064 4.6572123 -2.22715 26.389999
-10.746716 5.3323779 -2.2603369 26.389999
-11.552917 5.7726655 -2.1218333 26.549999
-13.413374 6.7022829 -2.1073592 26.549999
-14.652977 7.3216777 -1.9155573 26.549999
-25.66218 12.822664 -2.6764023 26.549999
-35.948055 17.962225 -2.8100698 26.549999
-4.1432405 2.0702598 -2.0621548 26.549999
-48.728352 24.348177 -2.5402875 26.549999
-4.3962517 2.1966825 -2.0527627 26.549999
-4.7263026 2.3615994 -2.0631278 26.549999
-5.0956988 2.5461764 -2.0733261 26.549999
-5.5407715 2.7685666 -2.0929248 26.549999
-6.0441642 3.0200977 -2.1083574 26.549999
-6.6761975 3.3359067 -2.1400485 26.549999
-7.4059472 3.700542 -2.167326 26.549999
-8.3405952 4.1675591 -2.2092187 26.549999
-9.3712149 4.6825304 -2.2267342 26.549999
-10.730024 5.3614893 -2.2599664 26.549999
-11.534725 5.8089318 -2.1218333 26.73
-13.385177 6.7408261 -2.1062458 26.73
-25.632441 12.908595 -2.6775172 26.73
-35.877193 18.06789 -2.8089538 26.73
-4.1318207 2.0808005 -2.0597143 26.73
-48.731915 24.541578 -2.5444798 26.73
-4.3942738 2.2129729 -2.0550752 26.73
-4.7188601 2.376436 -2.0631278 26.73
-48.466919 24.408125 0 26.73
-5.094389 2.5655537 -2.0760622 26.73
-5.5286617 2.7842553 -2.0916443 26.73
-6.0346465 3.0390711 -2.1083574 26.73
-6.6588163 3.3534052 -2.1378434 26.73
-7.3942847 3.7237902 -2.167326 26.73
-8.3222466 4.1911154 -2.2078354 26.73
-9.359952 4.7137079 -2.2275658 26.73
-10.70435 5.3907518 -2.2581151 26.73
-11.509658 5.836657 -2.1202121 26.889999
-13.369833 6.7799697 -2.1068025 26.889999
-14.901599 7.5567427 -1.953887 26.889999
-25.596294 12.980124 -2.6775172 26.889999
-35.858627 18.184252 -2.811465 26.889999
-4.1276236 2.0931571 -2.0605278 26.889999
-48.748718 24.72094 -2.5489519 26.889999
-4.3831387 2.2227314 -2.0527627 26.889999
-4.7088823 2.3879189 -2.0616727 26.889999
-48.34684 24.517143 0 26.889999
-5.0821762 2.57722 -2.0740101 26.889999
-5.5208654 2.7996833 -2.0916443 26.889999
-6.021028 3.0533206 -2.1065702 26.889999
-6.6511407 3.3728566 -2.1383946 26.889999
-7.3804059 3.7426741 -2.1663129 26.889999
-8.3035679 4.2108183 -2.205991 26.889999
-9.3362837 4.7345185 -2.225071 26.889999
-10.691009 5.4215121 -2.2584853 26.889999
-11.49478 5.8745832 -2.1208606 27.07
-13.341413 6.8183336 -2.105689 27.07
-14.884861 7.6071362 -1.9548162 27.07
-25.557163 13.061379 -2.6777029 27.07
-35.811981 18.302261 -2.8123021 27.07
-4.121027 2.1061141 -2.0605278 27.07
-4.3794208 2.2381701 -2.0543044 27.07
-4.707993 2.4060919 -2.0645826 27.07
-5.0774016 2.5948839 -2.0753782 27.07
-48.096336 24.58037 1.2540329 27.07
-5.5120425 2.8170137 -2.0916443 27.07
-6.0131063 3.0730901 -2.1071661 27.07
-6.6370878 3.3919854 -2.1372921 27.07
-7.3686118 3.765842 -2.1663129 27.07
-8.2902985 4.2368836 -2.205991 27.07
-9.3283319 4.7673869 -2.2267342 27.07
-10.665173 5.4505997 -2.2566338 27.07
-11.468525 5.9041462 -2.1192393 27.24
-13.308798 6.8515425 -2.1037407 27.24
-14.745658 7.5912566 -1.9394844 27.24
-25.512985 13.134417 -2.6771455 27.24
-35.757519 18.408438 -2.8123021 27.24
-4.1131358 2.1174958 -2.0597143 27.24
-4.3744016 2.2519991 -2.0550752 27.24
-4.6958637 2.4174919 -2.0624001 27.24
-5.0680089 2.6090772 -2.0746942 27.24
-5.4986062 2.830754 -2.0897236 27.24
-6.002264 3.0900438 -2.1065702 27.24
-6.6252851 3.4107831 -2.1367407 27.24
-7.3574057 3.7876885 -2.1663129 27.24
-8.27596 4.2605724 -2.2055299 27.24
-9.30371 4.7896709 -2.2242393 27.24
-10.641964 5.4786215 -2.2551525 27.24
-11.455175 5.942873 -2.1202121 27.42
-13.30303 6.9015279 -2.1062458 27.42
-14.727026 7.6402884 -1.9401813 27.42
-25.49811 13.228259 -2.6799324 27.42
-35.6269 18.483011 -2.806582 27.42
-4.1015973 2.127883 -2.0572739 27.42
-4.3673053 2.2657304 -2.0550752 27.42
-4.6915536 2.4339483 -2.0638552 27.42
-5.0514464 2.6206584 -2.071274 27.42
-5.4880042 2.847142 -2.0890834 27.42
-5.992527 3.1088853 -2.1065702 27.42
-6.6162434 3.4324656 -2.1372921 27.42
-7.3386006 3.8072197 -2.1642869 27.42
-8.2625341 4.286551 -2.2055299 27.42
-9.2868805 4.817975 -2.2238235 27.42
-10.628189 5.5138373 -2.2558932 27.42
-11.44099 5.978663 -2.1208606 27.59
-13.280739 6.9400511 -2.1059673 27.59
-14.876828 7.7741122 -1.9629468 27.59
-25.370504 13.257741 -2.6706431 27.59
-35.571903 18.588638 -2.806582 27.59
-4.1001239 2.1425819 -2.0597143 27.59
-4.3621993 2.2795331 -2.055846 27.59
-4.6793575 2.4452693 -2.0616727 27.59
-5.0519767 2.639987 -2.0746942 27.59
-5.4812117 2.8642902 -2.0897236 27.59
-5.9832764 3.1266518 -2.1065702 27.59
-6.6026225 3.4503005 -2.1361895 27.59
-7.3289866 3.8298731 -2.1647935 27.59
-8.2463303 4.3092446 -2.2046077 27.59
-9.2621412 4.8400722 -2.2213285 27.59
-10.599588 5.5389757 -2.2533009 27.59
-11.424948 6.0135021 -2.1211848 27.76
-13.235552 6.9665108 -2.1020706 27.76
-16.258205 8.5574789 -2.1485555 27.76
-25.346914 13.341306 -2.6723151 27.76
-35.481285 18.675514 -2.8037918 27.76
-4.0921321 2.1538868 -2.0589008 27.76
-4.3521504 2.2907469 -2.0543044 27.76
-4.6720819 2.4591424 -2.0616727 27.76
-5.0324798 2.6488373 -2.069906 27.76
-5.4710121 2.8796582 -2.0890834 27.76
-5.9638362 3.1390553 -2.1029956 27.76
-6.5889535 3.4680846 -2.135087 27.76
-7.3141665 3.8497994 -2.1637805 27.76
-8.2266197 4.3300672 -2.2027631 27.76
-9.2512016 4.8693547 -2.2221601 27.76
-10.584846 5.5713162 -2.2536714 27.76
-11.396593 6.0418277 -2.1192393 27.93
-13.211325 7.0038953 -2.1015139 27.93
-16.225723 8.6019592 -2.1476264 27.93
-25.282587 13.403395 -2.6697142 27.93
-35.356972 18.744261 -2.7983508 27.93
-4.0857229 2.1660187 -2.0589008 27.93
-4.3502259 2.3062432 -2.0566168 27.93
-4.668057 2.4747391 -2.0631278 27.93
-5.0312405 2.6672785 -2.0726421 27.93
-5.4708142 2.9003158 -2.0922847 27.93
-5.9612436 3.1603134 -2.1053786 27.93
-6.5803332 3.4885197 -2.1356382 27.93
-7.299293 3.8696713 -2.1627674 27.93
-8.2154551 4.3553686 -2.2032242 27.93
-9.2263432 4.891284 -2.2196653 27.93
-10.570006 5.6036181 -2.2540417 27.93
-11.380357 6.0765448 -2.1195636 28.1
-13.188738 7.0421305 -2.1012354 28.1
-16.208891 8.6547422 -2.148788 28.1
-25.318243 13.518682 -2.6777029 28.1
-35.348717 18.874458 -2.8021176 28.1
-4.0792785 2.1781318 -2.0589008 28.1
-4.33848 2.3165326 -2.0543044 28.1
-4.6508331 2.4833136 -2.0587628 28.1
-5.0199885 2.6804242 -2.071274 28.1
-5.4504852 2.9102879 -2.0878029 28.1
-5.9451036 3.1743898 -2.1029956 28.1
-6.5665617 3.5062175 -2.1345358 28.1
-7.2843661 3.8894892 -2.1617544 28.1
-8.1990633 4.377892 -2.202302 28.1
-9.2117891 4.9186378 -2.2196653 28.1
-10.544665 5.6303267 -2.2521901 28.1
-11.353587 6.1056104 -2.1179423 28.27
-13.164297 7.0793548 -2.1006787 28.27
-15.378358 8.270009 -2.0419292 28.27
-17.515549 9.4193239 -1.8554235 28.27
-35.171318 18.914055 -2.7924912 28.27
-4.0679703 2.1876297 -2.0564604 28.27
-4.3299623 2.328521 -2.0535336 28.27
-4.6434445 2.497102 -2.0587628 28.27
-5.0103583 2.694417 -2.07059 28.27
-5.4434948 2.9273443 -2.0884433 28.27
-5.9339776 3.1911111 -2.1024001 28.27
-6.5493569 3.522043 -2.1323307 28.27
-7.2710896 3.9101689 -2.161248 28.27
-8.1826096 4.4003563 -2.2013798 28.27
-9.1937094 4.9440947 -2.2188334 28.27
-10.527913 5.6615887 -2.2521901 28.27
-11.336084 6.142189 -2.1182666 28.450001
-13.155923 7.1282248 -2.1029055 28.450001
-15.366273 8.3258514 -2.0437877 28.450001
-23.067621 12.498644 -2.4477024 28.450001
-34.906483 18.913252 -2.7761681 28.450001
-4.065897 2.2030098 -2.0589008 28.450001
-4.330739 2.3465083 -2.0573876 28.450001
-4.6355767 2.5116775 -2.0587628 28.450001
-4.9936066 2.7056675 -2.0671697 28.450001
-5.4376035 2.9462366 -2.0897236 28.450001
-5.9256015 3.2106469 -2.1029956 28.450001
-6.5433307 3.5453486 -2.1339843 28.450001
-7.2570686 3.9320705 -2.1607413 28.450001
-8.1636114 4.4232597 -2.1999965 28.450001
-9.1781311 4.9729533 -2.2188334 28.450001
-10.501434 5.6899533 -2.2503386 28.450001
-11.316078 6.1748514 -2.1179423 28.620001
-13.124284 7.1615357 -2.1012354 28.620001
-15.348477 8.3752127 -2.0447168 28.620001
-23.040924 12.572755 -2.4488173 28.620001
-35.126926 19.167732 -2.7982111 28.620001
-4.0609465 2.2159393 -2.0597143 28.620001
-4.3172774 2.3558116 -2.0543044 28.620001
-4.6264687 2.524528 -2.0580354 28.620001
-4.9938059 2.724973 -2.07059 28.620001
-5.4221845 2.9587269 -2.0871627 28.620001
-5.9194012 3.2300434 -2.1041873 28.620001
-6.5226569 3.5592222 -2.1306767 28.620001
-7.2436714 3.9526587 -2.1602349 28.620001
-8.1453266 4.4446654 -2.1986132 28.620001
-9.1581841 4.9973521 -2.217586 28.620001
-10.48278 5.7201452 -2.2499683 28.620001
-11.296623 6.2103715 -2.1179423 28.799999
-13.093042 7.1979609 -2.0998437 28.799999
-15.221127 8.3678856 -2.0312433 28.799999
-23.041447 12.667143 -2.4530902 28.799999
-35.08577 19.288565 -2.7997458 28.799999
-4.0523639 2.2278059 -2.0589008 28.799999
-4.3098555 2.3693631 -2.0543044 28.799999
-4.6168823 2.5381525 -2.057308 28.799999
-4.9786325 2.7370265 -2.0678537 28.799999
-5.4161835 2.9775722 -2.0884433 28.799999
-5.9008594 3.244025 -2.1012084 28.799999
-6.5148125 3.5815485 -2.1317792 28.799999
-7.221045 3.9698031 -2.1571958 28.799999
-8.133029 4.4711704 -2.1990743 28.799999
-9.1390104 5.0242138 -2.2167544 28.799999
-10.45787 5.7492623 -2.248487 28.799999
-11.280326 6.2399244 -2.1179423 28.950001
-13.074153 7.232214 -2.0998437 28.950001
-15.140067 8.3750124 -2.0233452 28.950001
-23.025631 12.737061 -2.4549479 28.950001
-34.963573 19.340757 -2.7940259 28.950001
-4.0449185 2.2375228 -2.0580873 28.950001
-4.3004079 2.3788514 -2.0527627 28.950001
-4.6118517 2.5511324 -2.0580354 28.950001
-4.9681611 2.7482316 -2.0664856 28.950001
-5.4033957 2.9889901 -2.0865226 28.950001
-5.8923464 3.2594621 -2.1012084 28.950001
-6.505414 3.598592 -2.1317792 28.950001
-7.2123203 3.9896307 -2.1577024 28.950001
-8.1178894 4.4905629 -2.1981521 28.950001
-9.1172667 5.0433879 -2.2146754 28.950001
-10.441062 5.7756696 -2.2481167 28.950001
-11.26302 6.2792192 -2.1185908 29.139999
-13.048368 7.2745652 -2.0995655 29.139999
-15.03587 8.3826122 -2.013124 29.139999
-16.702612 9.3118334 -1.7840825 29.139999
-34.779003 19.389561 -2.7843995 29.139999
-4.0454559 2.2553725 -2.0621548 29.139999
-4.2973313 2.3957949 -2.0550752 29.139999
-4.6033664 2.566412 -2.0580354 29.139999
-4.9590201 2.7646916 -2.0664856 29.139999
-5.3951092 3.0078144 -2.0871627 29.139999
-5.87817 3.2771246 -2.1000168 29.139999
-6.4917655 3.6192088 -2.131228 29.139999
-7.197361 4.0125837 -2.1571958 29.139999
-8.0995541 4.515563 -2.1972299 29.139999
-9.1056185 5.0764518 -2.2159228 29.139999
-10.416701 5.8073907 -2.2470059 29.139999
-11.236835 6.3058176 -2.1169696 29.299999
-13.029731 7.311944 -2.0998437 29.299999
-15.074766 8.4595642 -2.0214868 29.299999
-16.780739 9.4169111 -1.7952296 29.299999
-34.677746 19.460243 -2.7806325 29.299999
-4.0295815 2.2612958 -2.0572739 29.299999
-4.2890148 2.406883 -2.0543044 29.299999
-4.5961819 2.579257 -2.0580354 29.299999
-4.9561973 2.7812881 -2.0685377 29.299999
-5.388341 3.0237961 -2.0878029 29.299999
-5.8640008 3.2907238 -2.0982296 29.299999
-6.4749269 3.6335597 -2.1290228 29.299999
-7.1810656 4.0298262 -2.1556764 29.299999
-8.0886097 4.5391159 -2.197691 29.299999
-9.0828772 5.0970726 -2.2138436 29.299999
-10.388446 5.8297238 -2.2444136 29.299999
-11.23354 6.3478684 -2.1198878 29.469999
-13.00453 7.3486228 -2.099287 29.469999
-15.006364 8.4798231 -2.0156791 29.469999
-16.737122 9.4578428 -1.7935575 29.469999
-34.588589 19.545382 -2.7781212 29.469999
-4.0276265 2.2759385 -2.0597143 29.469999
-4.2802482 2.4186902 -2.0535336 29.469999
-4.5868869 2.5919662 -2.057308 29.469999
-4.9413781 2.7922828 -2.0658016 29.469999
-5.3760467 3.0379059 -2.0865226 29.469999
-5.8558736 3.3090475 -2.0988255 29.469999
-6.4624438 3.6518092 -2.1284716 29.469999
-7.1640239 4.0482593 -2.1541569 29.469999
-8.0734119 4.5621381 -2.1972299 29.469999
-9.0643072 5.1220746 -2.213012 29.469999
-10.374525 5.8624554 -2.2451544 29.469999
-11.20951 6.378243 -2.1189151 29.639999
-12.979226 7.3852167 -2.0987303 29.639999
-14.915529 8.4869785 -2.0068517 29.639999
-17.484377 9.9486609 -1.8767886 29.639999
-34.532177 19.648909 -2.7782609 29.639999
-4.0240321 2.2896857 -2.0613413 29.639999
-4.2746568 2.432292 -2.0543044 29.639999
-4.5872722 2.6101711 -2.0609453 29.639999
-4.9347053 2.8078613 -2.0664856 29.639999
-5.3670092 3.0538435 -2.0865226 29.639999
-5.8476887 3.3273518 -2.0994213 29.639999
-6.4482384 3.6690662 -2.1273692 29.639999
-7.1553445 4.0714116 -2.1551697 29.639999
-8.0581484 4.5851097 -2.1967685 29.639999
-9.0422688 5.1450768 -2.2113488 29.639999
-10.350252 5.8893232 -2.2436731 29.639999
-11.189417 6.4134274 -2.1189151 29.82
-12.959397 7.4279256 -2.099287 29.82
-14.554446 8.3421583 -1.9617853 29.82
-21.843075 12.519774 -2.3488655 29.82
-34.444313 19.742414 -2.7761681 29.82
-4.0104785 2.298682 -2.0580873 29.82
-4.263792 2.4438736 -2.0527627 29.82
-4.5709682 2.6199374 -2.057308 29.82
-4.9258599 2.8233504 -2.0664856 29.82
-5.357389 3.0706894 -2.0865226 29.82
-5.8289247 3.3409593 -2.0964425 29.82
-6.4333439 3.6873937 -2.1262665 29.82
-7.1391611 4.0919461 -2.1541569 29.82
-8.042016 4.6094346 -2.1963074 29.82
-9.0243626 5.1724854 -2.210933 29.82
-10.329994 5.9208331 -2.2433028 29.82
-11.182886 6.4564424 -2.1215091 30
-12.934282 7.4676113 -2.0990088 30
-14.612463 8.4365091 -1.973168 30
-21.807083 12.590325 -2.349237 30
-34.368298 19.842546 -2.7750521 30
-4.0048194 2.3121836 -2.0589008 30
-4.2592897 2.4591022 -2.0543044 30
-4.5643282 2.635216 -2.0580354 30
-4.9104552 2.8350527 -2.0637496 30
-5.3378701 3.0818207 -2.0826812 30
-5.8217068 3.3611641 -2.0976338 30
-6.426723 3.7104702 -2.1279204 30
-7.1245952 4.1133871 -2.1536503 30
-8.0123272 4.6259189 -2.1921575 30
-9.0080681 5.2008109 -2.210933 30
-10.304534 5.9493256 -2.2418215 30
-11.184155 6.5014963 -2.1254001 30.17
-12.917206 7.5089417 -2.0998437 30.17
-14.922255 8.6745024 -2.0184669 30.17
-21.804064 12.674989 -2.3529527 30.17
-34.281677 19.928389 -2.7728198 30.17
-3.9963617 2.3231378 -2.0580873 30.17
-4.2551661 2.4735839 -2.055846 30.17
-4.553268 2.6468744 -2.0565803 30.17
-4.9068961 2.8524432 -2.0658016 30.17
-5.3303409 3.098597 -2.0833213 30.17
-5.8117085 3.3784225 -2.0976338 30.17
-6.4106989 3.7266238 -2.1262665 30.17
-7.1056681 4.1306186 -2.1516242 30.17
-8.0036135 4.652606 -2.1935408 30.17
-8.9909067 5.226532 -2.2105172 30.17
-10.285138 5.9788857 -2.2414513 30.17
-11.173331 6.5396361 -2.1270211 30.34
-12.891451 7.5452337 -2.099287 30.34
-14.855306 8.6946573 -2.0128915 30.34
-21.745737 12.727556 -2.3507233 30.34
-34.127693 19.974588 -2.7651467 30.34
-3.9847207 2.332216 -2.0556469 30.34
-4.2430296 2.4834015 -2.0535336 30.34
-4.5373549 2.6556673 -2.052943 30.34
-4.8951674 2.8650911 -2.0644336 30.34
-5.3243942 3.1163132 -2.0846019 30.34
-5.8016591 3.3956513 -2.0976338 30.34
-6.3929768 3.7417436 -2.1240613 30.34
-7.0917115 4.1507058 -2.1511178 30.34
-7.9880943 4.6753497 -2.1930797 30.34
-8.966918 5.2482448 -2.2084379 30.34
-10.262264 6.0063977 -2.2403402 30.34
-11.16863 6.5788255 -2.1296151 30.5
-12.872037 7.5822091 -2.0995655 30.5
-14.764215 8.6967878 -2.0038319 30.5
-21.744427 12.808446 -2.354439 30.5
-34.037399 20.049561 -2.7623563 30.5
-3.9829152 2.3461163 -2.0580873 30.5
-4.2360783 2.4952407 -2.0535336 30.5
-4.528316 2.6673822 -2.0522156 30.5
-4.8790507 2.8739805 -2.0610135 30.5
-5.3042431 3.1244378 -2.0801201 30.5
-5.7822838 3.4060254 -2.0940595 30.5
-6.3858161 3.761533 -2.125164 30.5
-7.0817599 4.1714754 -2.1516242 30.5
-7.9733305 4.6966505 -2.1926186 30.5
-8.9488554 5.2712789 -2.2076063 30.5
-10.236983 6.0300441 -2.2384889 30.5
-11.169431 6.6240149 -2.1335061 30.67
-12.849483 7.6203675 -2.0995655 30.67
-14.808399 8.7820997 -2.0133562 30.67
-21.812521 12.935884 -2.3659575 30.67
-33.964031 20.142321 -2.7612402 30.67
-3.9759367 2.3579235 -2.0580873 30.67
-55.008507 32.622719 -2.9824574 30.67
-4.233418 2.5106225 -2.055846 30.67
-4.5267916 2.6846073 -2.0551255 30.67
-4.8721185 2.8894029 -2.0616975 30.67
-5.3014679 3.1440279 -2.0826812 30.67
-5.7787209 3.4270623 -2.0964425 30.67
-6.3680129 3.776541 -2.1229589 30.67
-7.0643592 4.189508 -2.1501048 30.67
-7.9560122 4.7183018 -2.1916964 30.67
-8.9348583 5.2988052 -2.2080221 30.67
-10.219048 6.0603914 -2.2384889 30.67
-11.170591 6.6722283 -2.1377211 30.85
-12.818679 7.6566353 -2.0984521 30.85
-14.698876 8.7796831 -2.0022058 30.85
-21.862383 13.058467 -2.3758042 30.85
-33.934841 20.269384 -2.7640305 30.85
-3.9732151 2.3732135 -2.0605278 30.85
-4.2207565 2.5210707 -2.0535336 30.85
-4.516736 2.69786 -2.0543981 30.85
-4.8597903 2.9027674 -2.0603294 30.85
-5.2915645 3.1606677 -2.0826812 30.85
-5.7695651 3.4461787 -2.0970383 30.85
-6.3561172 3.7965281 -2.1229589 30.85
-7.0478406 4.2096963 -2.1490917 30.85
-7.9361377 4.7402792 -2.1903129 30.85
-8.9148092 5.3248425 -2.2071905 30.85
-10.196583 6.0904498 -2.2377481 30.85
-11.16935 6.7165298 -2.1412878 31.02
-12.797602 7.6956563 -2.0987303 31.02
-14.550191 8.7495508 -1.9854801 31.02
-21.84914 13.13867 -2.3785908 31.02
-33.883102 20.375122 -2.7647281 31.02
-3.9630246 2.3831086 -2.0589008 31.02
-54.63699 32.855179 -2.9731407 31.02
-4.2148395 2.534534 -2.0543044 31.02
-4.5087113 2.7112496 -2.0543981 31.02
-4.8527665 2.9181423 -2.0610135 31.02
-5.2805395 3.1753776 -2.0820408 31.02
-5.7527699 3.4593468 -2.0946553 31.02
-6.3448248 3.8153703 -2.1229589 31.02
-7.0320029 4.2285953 -2.1480787 31.02
-7.9203706 4.7628021 -2.1898518 31.02
-8.8956175 5.3492532 -2.2063589 31.02
-10.173414 6.1176381 -2.2366374 31.02
-11.17132 6.7629271 -2.1455028 31.190001
-12.767935 7.7294908 -2.0976169 31.190001
-14.393318 8.7134705 -1.9675928 31.190001
-14.32483 8.6720085 -1.5622566 31.190001
-33.762764 20.439404 -2.759845 31.190001
-3.9559364 2.3948567 -2.0589008 31.190001
-54.605919 33.057495 -2.9767742 31.190001
-4.2041435 2.5451169 -2.0527627 31.190001
-4.5038347 2.7265449 -2.0558529 31.190001
-4.8440871 2.932528 -2.0610135 31.190001
-5.2613697 3.1851437 -2.0781994 31.190001
-5.7424808 3.4764001 -2.0946553 31.190001
-6.3301868 3.8321877 -2.1218565 31.190001
-7.0194254 4.2494407 -2.1480787 31.190001
-7.9028745 4.784266 -2.1889296 31.190001
-8.8763599 5.3735976 -2.2055273 31.190001
-10.153537 6.1467786 -2.2362671 31.190001
-11.161814 6.805181 -2.1477726 31.370001
-12.74528 7.7705951 -2.0978954 31.370001
-21.702162 13.231464 -2.3713453 31.370001
-33.71542 20.555758 -2.7612402 31.370001
-3.9468331 2.4063215 -2.0580873 31.370001
-54.575146 33.273602 -2.9807804 31.370001
-4.1961269 2.5583122 -2.0527627 31.370001
-4.4952469 2.7406807 -2.0558529 31.370001
-4.8300362 2.9447966 -2.0589612 31.370001
-5.2481017 3.1996844 -2.0769191 31.370001
-5.7250104 3.4904482 -2.0922723 31.370001
-6.3148336 3.850054 -2.1207538 31.370001
-7.0043888 4.2704649 -2.1475723 31.370001
-7.8844819 4.8070436 -2.1880074 31.370001
-8.8577642 5.4004383 -2.2051115 31.370001
-10.134176 6.1786466 -2.2362671 31.370001
-11.161757 6.850657 -2.1516635 31.540001
-12.722168 7.8083768 -2.0978954 31.540001
-21.659414 13.293715 -2.3709738 31.540001
-33.659382 20.658833 -2.7616589 31.540001
-3.9334474 2.4141986 -2.0548334 31.540001
-54.554504 33.483456 -2.9850659 31.540001
-4.1885176 2.570751 -2.0527627 31.540001
-4.4886827 2.7549808 -2.0565803 31.540001
-4.824481 2.9610808 -2.0603294 31.540001
-5.2401996 3.2162328 -2.0775592 31.540001
-5.7146287 3.5074191 -2.0922723 31.540001
-6.3050208 3.8697791 -2.121305 31.540001
-6.9867406 4.2881923 -2.1460528 31.540001
-7.8635497 4.826344 -2.1861629 31.540001
-8.8350325 5.4226027 -2.2034481 31.540001
-10.107424 6.2035475 -2.2344155 31.540001
-11.15985 6.895155 -2.15523 31.709999
-12.698944 7.8460898 -2.0978954 31.709999
-14.514747 8.9679899 -1.9952366 31.709999
-21.64698 13.374668 -2.3739462 31.709999
-33.567387 20.739735 -2.7591476 31.709999
-3.9247127 2.4248984 -2.0540202 31.709999
-54.550095 33.703979 -2.9902833 31.709999
-4.1793017 2.5821972 -2.0519917 31.709999
-4.4773192 2.7663283 -2.0551255 31.709999
-4.8140755 2.9743946 -2.0596454 31.709999
-5.2386937 3.2367463 -2.0807605 31.709999
-5.7074456 3.5263665 -2.0934637 31.709999
-6.2869692 3.8844273 -2.1191001 31.709999
-6.9739861 4.3089032 -2.1460528 31.709999
-7.8525066 4.8517003 -2.1870852 31.709999
-8.8172398 5.4477649 -2.2030323 31.709999
-10.088973 6.2335095 -2.2344155 31.709999
-11.159453 6.9407444 -2.159121 31.879999
-12.670563 7.8805957 -2.0970602 31.879999
-15.137499 9.4149332 -2.0846727 31.879999
-21.608892 13.439888 -2.3741322 31.879999
-33.580246 20.885603 -2.7652862 31.879999
-3.9221551 2.4394274 -2.0564604 31.879999
-54.531284 33.916332 -2.9947553 31.879999
-4.1716218 2.5945861 -2.0519917 31.879999
-4.4738374 2.7825525 -2.057308 31.879999
-4.8052292 2.9886651 -2.0596454 31.879999
-5.2178044 3.2452707 -2.0762787 31.879999
-5.6920938 3.5402603 -2.0916765 31.879999
-6.2705188 3.900018 -2.1174462 31.879999
-6.9545989 4.325489 -2.1440268 31.879999
-7.826509 4.8677831 -2.1838572 31.879999
-8.7993765 5.4728689 -2.2026165 31.879999
-10.065427 6.2603025 -2.2333045 31.879999
-11.151738 6.9792089 -2.1613908 32.040001
-12.653543 7.9191003 -2.0978954 32.040001
-14.616087 9.1473398 -2.016376 32.040001
-21.642176 13.54455 -2.3819349 32.040001
-33.36451 20.880861 -2.7523115 32.040001
-3.9153275 2.4503706 -2.0564604 32.040001
-4.162796 2.6052463 -2.0512209 32.040001
-4.4644704 2.7940464 -2.0565803 32.040001
-4.7952714 3.001075 -2.0589612 32.040001
-5.2087212 3.2598288 -2.0762787 32.040001
-5.6789484 3.554116 -2.0904849 32.040001
-6.2628627 3.9195533 -2.1185486 32.040001
-6.942493 4.3448935 -2.1440268 32.040001
-7.811235 4.8885875 -2.1833961 32.040001
-8.7807426 5.4953442 -2.2017848 32.040001
-10.041241 6.2842155 -2.2318234 32.040001
-11.15981 7.0331492 -2.167227 32.220001
-12.621901 7.9545894 -2.096782 32.220001
-14.578876 9.1879168 -2.0152147 32.220001
-21.592777 13.608227 -2.381192 32.220001
-33.280178 20.973873 -2.7507768 32.220001
-3.9076102 2.4626589 -2.0564604 32.220001
-4.1577134 2.6202791 -2.0527627 32.220001
-4.4572468 2.8090515 -2.057308 32.220001
-4.7810497 3.013119 -2.0569091 32.220001
-5.193646 3.2731457 -2.074358 32.220001
-5.6758308 3.577029 -2.0934637 32.220001
-6.2488918 3.938184 -2.1179974 32.220001
-6.9255352 4.3646193 -2.1430137 32.220001
-7.7941923 4.9120655 -2.182935 32.220001
-8.756815 5.5187302 -2.2001214 32.220001
-10.018124 6.3136339 -2.2310827 32.220001
-11.15599 7.0798063 -2.1707938 32.400002
-12.603537 7.9984479 -2.0978954 32.400002
-21.561689 13.683464 -2.3824923 32.400002
-33.212437 21.077253 -2.7506373 32.400002
-3.901397 2.4759018 -2.0572739 32.400002
-4.1479025 2.632339 -2.0519917 32.400002
-4.4499731 2.8240387 -2.0580354 32.400002
-4.7620392 3.0220819 -2.0528049 32.400002
-5.1897364 3.2935069 -2.0769191 32.400002
-5.6532812 3.5876815 -2.0892935 32.400002
-6.2299957 3.9536755 -2.1157923 32.400002
-6.9117889 4.3863549 -2.1430137 32.400002
-7.7770791 4.9354844 -2.1824739 32.400002
-8.7377825 5.5451651 -2.1997056 32.400002
-9.9949198 6.3429694 -2.2303421 32.400002
-11.149902 7.122437 -2.1737118 32.57
-12.581419 8.0368738 -2.0981736 32.57
-21.487431 13.725939 -2.3787768 32.57
-33.146393 21.173555 -2.7503583 32.57
-3.892494 2.4864831 -2.0564604 32.57
-4.1416292 2.645628 -2.0527627 32.57
-4.4400043 2.8362267 -2.057308 32.57
-4.759387 3.0402448 -2.055541 32.57
-5.1735544 3.3048105 -2.074358 32.57
-5.6490474 3.6085503 -2.0916765 32.57
-6.2198577 3.9731779 -2.1163437 32.57
-6.8938527 4.4037185 -2.1414943 32.57
-7.7607608 4.95749 -2.1820128 32.57
-8.7212906 5.5710664 -2.1997056 32.57
-9.9677744 6.3673067 -2.2284906 32.57
-11.149892 7.1663504 -2.1776028 32.73
-12.547264 8.0644808 -2.0962253 32.73
-15.420616 9.9112654 -2.1436772 32.73
-21.484196 13.808499 -2.382678 32.73
-33.06028 21.248775 -2.748126 32.73
-3.8824611 2.4953675 -2.0548334 32.73
-4.1311202 2.6551876 -2.0512209 32.73
-4.4289322 2.8465998 -2.0558529 32.73
-4.752459 3.0545397 -2.0562251 32.73
-5.1611176 3.3171961 -2.0730777 32.73
-5.630918 3.6191502 -2.0886977 32.73
-6.2071209 3.9894919 -2.1157923 32.73
-6.878273 4.4208603 -2.1404812 32.73
-7.7370639 4.9728293 -2.1792462 32.73
-8.6991167 5.5911679 -2.1980424 32.73
-9.9449949 6.3919291 -2.2273798 32.73
-11.152176 7.2174273 -2.1824663 32.91
-12.521867 8.1038589 -2.0962253 32.91
-15.381064 9.9542656 -2.1425159 32.91
-21.449068 13.881335 -2.3836071 32.91
-33.000061 21.356869 -2.7486842 32.91
-3.8776703 2.5095377 -2.0564604 32.91
-4.1274066 2.6711609 -2.0535336 32.91
-4.4199677 2.8604996 -2.0558529 32.91
-4.7396841 3.0674129 -2.054857 32.91
-5.1586242 3.338541 -2.0762787 32.91
-5.6179175 3.6357849 -2.0881019 32.91
-6.191329 4.0068836 -2.1146898 32.91
-6.8627262 4.4413958 -2.1399748 32.91
-7.7181354 4.994997 -2.178324 32.91
-8.6749392 5.6142178 -2.1963792 32.91
-9.9215651 6.4210048 -2.226639 32.91
-11.158824 7.2687969 -2.1879785 33.080002
-12.499427 8.1420574 -2.0965035 33.080002
-21.377752 13.925351 -2.3802629 33.080002
-32.891415 21.425285 -2.7449172 33.080002
-3.8748002 2.5240235 -2.0589008 33.080002
-4.1163702 2.6813807 -2.0519917 33.080002
-4.4098997 2.8725846 -2.0551255 33.080002
-4.7321367 3.0824878 -2.055541 33.080002
-5.1471086 3.3527982 -2.0756385 33.080002
-5.608705 3.6534796 -2.0886977 33.080002
-6.1794133 4.0252357 -2.1146898 33.080002
-6.8511391 4.4627943 -2.1404812 33.080002
-7.7016506 5.0168128 -2.1778629 33.080002
-8.6631613 5.6431355 -2.1976266 33.080002
-9.9024696 6.4504147 -2.226639 33.080002
-11.157014 7.3148584 -2.1918693 33.25
-12.475214 8.1791086 -2.0965035 33.25
-21.318024 13.976708 -2.3782194 33.25
-32.654175 21.409016 -2.730408 33.25
-3.8657663 2.5345073 -2.0580873 33.25
-4.1083961 2.6935825 -2.0519917 33.25
-4.4013572 2.8856564 -2.0551255 33.25
-4.7308288 3.1016672 -2.0589612 33.25
-5.1276307 3.3618219 -2.0717971 33.25
-5.5930505 3.6669645 -2.0869105 33.25
-6.1594038 4.0382824 -2.1119335 33.25
-6.8330135 4.4799199 -2.1389618 33.25
-7.6867313 5.0396419 -2.1778629 33.25
-8.6398354 5.6645241 -2.1959634 33.25
-9.8783569 6.4765344 -2.2255282 33.25
-11.155027 7.3609734 -2.1957603 33.419998
-12.452544 8.2171783 -2.096782 33.419998
-21.239893 14.015769 -2.3741322 33.419998
-32.49559 21.443172 -2.7224557 33.419998
-3.8536541 2.5429473 -2.0556469 33.419998
-4.0973053 2.7037277 -2.0504501 33.419998
-4.3896661 2.8966506 -2.0536704 33.419998
-4.7153306 3.1115496 -2.0562251 33.419998
-5.1144705 3.374934 -2.0705166 33.419998
-5.5789585 3.6814401 -2.0857189 33.419998
-6.1506042 4.0586576 -2.1130359 33.419998
-6.8132319 4.4959116 -2.1369357 33.419998
-7.6652474 5.0581393 -2.1760182 33.419998
-8.626256 5.6922894 -2.196795 33.419998
-9.8623781 6.5079803 -2.2262688 33.419998
-11.14171 7.4025345 -2.1977057 33.599998
-12.429967 8.2584505 -2.0973387 33.599998
-14.154824 9.4044428 -1.9873384 33.599998
-21.155949 14.055979 -2.3696733 33.599998
-32.371563 21.507616 -2.7177122 33.599998
-3.8426027 2.553019 -2.0540202 33.599998
-47.102146 31.294592 -2.637181 33.599998
-4.0887914 2.7165864 -2.0504501 33.599998
-4.3805447 2.9104269 -2.0536704 33.599998
-4.7008357 3.1232278 -2.054173 33.599998
-5.1022644 3.3899362 -2.0698764 33.599998
-5.5625949 3.6957791 -2.0839317 33.599998
-6.1346207 4.0758324 -2.1119335 33.599998
-6.8022971 4.5194354 -2.1379488 33.599998
-7.6493187 5.0821953 -2.1760182 33.599998
-8.6018133 5.7150307 -2.1951315 33.599998
-9.8304243 6.5313182 -2.2236767 33.599998
-11.146907 7.4481249 -2.2025692 33.75
-12.403363 8.2876625 -2.0965035 33.75
-21.135635 14.12238 -2.371531 33.75
-32.311829 21.590073 -2.7174332 33.75
-3.838944 2.5651004 -2.0556469 33.75
-46.993481 31.40004 -2.6356902 33.75
-4.081665 2.7272816 -2.0504501 33.75
-4.376008 2.923955 -2.0551255 33.75
-4.6957684 3.1376121 -2.055541 33.75
-5.1012492 3.4085457 -2.0730777 33.75
-5.5544877 3.71139 -2.0845275 33.75
-6.1239295 4.0918789 -2.1119335 33.75
-6.7856154 4.5340033 -2.1364293 33.75
-7.6262789 5.0957165 -2.1732516 33.75
-8.5819416 5.7342701 -2.1938841 33.75
-9.8083887 6.5537562 -2.2225657 33.75
-11.151618 7.5048819 -2.2084057 33.939999
-12.367597 8.3232193 -2.0951118 33.939999
-14.347618 9.6557455 -2.0224159 33.939999
-20.738449 13.956685 -2.332145 33.939999
-32.150673 21.636951 -2.7098994 33.939999
-3.8289011 2.5767965 -2.0548334 33.939999
-46.852631 31.531162 -2.6336405 33.939999
-4.0725989 2.7408018 -2.0504501 33.939999
-4.369379 2.9405308 -2.0565803 33.939999
-4.6915746 3.1573639 -2.0582771 33.939999
-5.0804863 3.419096 -2.0692363 33.939999
-5.5389819 3.7276571 -2.0833359 33.939999
-6.1071367 4.1100173 -2.1108308 33.939999
-6.7689381 4.5554004 -2.1359227 33.939999
-7.604495 5.1177182 -2.1718683 33.939999
-8.5628786 5.7626972 -2.1938841 33.939999
-9.7833414 6.5840511 -2.2218251 33.939999
-11.146958 7.5470586 -2.211648 34.099998
-12.349226 8.3610544 -2.0959468 34.099998
-20.677958 14.00003 -2.3297298 34.099998
-32.050476 21.699804 -2.7065511 34.099998
-3.8247161 2.5895276 -2.0564604 34.099998
-4.0679855 2.7542331 -2.0519917 34.099998
-4.3580651 2.9506319 -2.0551255 34.099998
-4.6765141 3.1662383 -2.055541 34.099998
-5.0693498 3.4322076 -2.0685959 34.099998
-5.5269699 3.7420399 -2.0827403 34.099998
-6.0956354 4.1270556 -2.1108308 34.099998
-6.7513838 4.5710306 -2.1344032 34.099998
-7.5885625 5.1378431 -2.1714072 34.099998
-8.5386534 5.7811031 -2.1918051 34.099998
-9.7600346 6.6080399 -2.2207143 34.099998
-11.144393 7.5964909 -2.2158632 34.279999
-12.319625 8.3975782 -2.0953903 34.279999
-15.04019 10.25203 -2.1285777 34.279999
-20.612482 14.050342 -2.3273146 34.279999
-31.982147 21.800386 -2.7065511 34.279999
-3.8150523 2.6005013 -2.0556469 34.279999
-4.0593128 2.7669995 -2.0519917 34.279999
-4.3441558 2.9611607 -2.052943 34.279999
-4.6649914 3.1798558 -2.054857 34.279999
-5.0585418 3.4481165 -2.0685959 34.279999
-5.5104537 3.7561588 -2.0809529 34.279999
-6.0778742 4.1429367 -2.1091771 34.279999
-6.7337928 4.5900388 -2.1333902 34.279999
-7.5675602 5.1583695 -2.1700237 34.279999
-8.5156002 5.804594 -2.1905575 34.279999
-9.7278585 6.6309204 -2.218122 34.279999
-11.141627 7.6459813 -2.2200782 34.459999
-12.286651 8.431757 -2.0942769 34.459999
-20.546896 14.10038 -2.3248994 34.459999
-31.903631 21.89398 -2.705714 34.459999
-3.8023443 2.6093724 -2.0532067 34.459999
-46.795155 32.113338 -2.6466839 34.459999
-4.0551648 2.7828712 -2.0543044 34.459999
-4.3379035 2.9769018 -2.0543981 34.459999
-4.656528 3.195559 -2.055541 34.459999
-5.052371 3.4672077 -2.0705166 34.459999
-5.5017748 3.7756124 -2.0821445 34.459999
-6.0616584 4.1598344 -2.1080744 34.459999
-6.7161493 4.6089811 -2.1323771 34.459999
-7.5497127 5.1810169 -2.1695626 34.459999
-8.502161 5.8346386 -2.1918051 34.459999
-9.7085991 6.6625609 -2.2184925 34.459999
-11.14297 7.6927619 -2.2246177 34.619999
-12.264687 8.4671602 -2.0945551 34.619999
-14.743687 10.178585 -2.0951264 34.619999
-18.74905 12.943765 -2.1255534 34.619999
-31.844009 21.984119 -2.7058537 34.619999
-3.7980499 2.6220562 -2.0548334 34.619999
-4.0413027 2.7899907 -2.0512209 34.619999
-4.3295736 2.9890039 -2.0543981 34.619999
-4.6383066 3.2021434 -2.0514369 34.619999
-5.0395508 3.4791501 -2.0692363 34.619999
-5.4927812 3.7920463 -2.0827403 34.619999
-6.0484362 4.1756535 -2.1075232 34.619999
-6.7048445 4.6288176 -2.1328838 34.619999
-7.5384183 5.2042909 -2.1704848 34.619999
-8.4729557 5.8494668 -2.1884785 34.619999
