# .PCD v0.7 - Point Cloud Data file format
VERSION 0.7
FIELDS x y z intensity
SIZE 4 4 4 4
TYPE F F F F
COUNT 1 1 1 1
WIDTH 1260
HEIGHT 1
VIEWPOINT 0 0 0 1 0 0 0
POINTS 1260
DATA ascii
7.7979836 4.5112457 -0.84048623 149.95
7.7056975 4.4578571 -0.6225068 149.95
3.8715348 2.2397387 -1.9913826 149.95
7.9340196 4.5899448 -0.42744952 149.95
4.1245561 2.3861151 -1.9903241 149.95
8.089344 4.6798019 -0.21697451 149.95
4.40238 2.5468402 -1.986015 149.95
23.421101 13.549444 0 149.95
4.6981254 2.7179332 -1.9755083 149.95
23.352486 13.509748 0.6263665 149.95
5.0629253 2.9289753 -1.9764023 149.95
23.30575 13.482713 1.2556096 149.95
5.4485912 3.1520886 -1.9641861 149.95
48.613937 28.123863 3.9272895 149.95
5.8976221 3.4118595 -1.9537176 149.95
48.466778 28.038729 5.2238708 149.95
6.0726142 3.5130949 -1.8365796 149.95
48.471584 28.04151 6.5485764 149.95
6.3995547 3.7022345 -1.7517892 149.95
6.3534384 3.6755557 -1.5601693 149.95
48.327118 27.957935 9.1727791 149.95
7.2660184 4.2034965 -1.5815692 149.95
7.992908 4.5887036 -1.5142056 150.14
8.0246696 4.6069384 -1.3004334 150.14
7.8316188 4.4961081 -1.0560422 150.14
7.890615 4.5299778 -0.8488465 150.14
7.8761616 4.5216799 -0.63506293 150.14
3.8805254 2.2277975 -1.9921961 150.14
7.9422665 4.5596309 -0.42707685 150.14
4.1308455 2.3715055 -1.9895532 150.14
23.303518 13.378478 -0.6238597 150.14
4.4075699 2.5303724 -1.98456 150.14
23.363567 13.412952 0 150.14
4.7071123 2.7023387 -1.9755083 150.14
23.31739 13.386442 0.6242311 150.14
5.0709672 2.9112265 -1.975762 150.14
23.261971 13.354625 1.2508582 150.14
5.4490795 3.1282997 -1.9606116 150.14
48.483727 27.834358 3.9092922 150.14
5.8989 3.3865402 -1.9504099 150.14
48.390247 27.780691 5.2056642 150.14
6.074163 3.4871583 -1.8335404 150.14
48.369633 27.768858 6.5223265 150.14
6.4151721 3.6829302 -1.7527115 150.14
6.8881407 3.9544601 -1.6882429 150.14
48.253544 27.702211 9.1413269 150.14
7.2407141 4.1568718 -1.5730522 150.14
7.859045 4.4809022 -1.4863209 150.31
7.843884 4.4722581 -1.2689804 150.31
7.97435 4.5466447 -1.0734648 150.31
7.7829266 4.4375029 -0.83584166 150.31
7.8496795 4.4755626 -0.63185412 150.31
3.8871183 2.216274 -1.9921961 150.31
7.9175782 4.5142756 -0.42502719 150.31
4.1442761 2.362895 -1.9926367 150.31
23.238894 13.249856 -0.62107444 150.31
4.410203 2.5145154 -1.9823776 150.31
23.297279 13.283145 0 150.31
4.7183752 2.6902223 -1.9768764 150.31
23.257999 13.26075 0.62158507 150.31
5.0828748 2.8980448 -1.9770426 150.31
23.233805 13.246955 1.2472247 150.31
5.46663 3.1168463 -1.9635903 150.31
48.401443 27.596502 3.8960385 150.31
5.9122624 3.3709276 -1.9515125 150.31
48.363476 27.574852 5.1939597 150.31
6.0760789 3.4643288 -1.831008 150.31
48.280972 27.527813 6.4993286 150.31
6.4209991 3.6609881 -1.7513281 150.31
6.8862476 3.9262536 -1.6849164 150.31
48.152081 27.454325 9.1066332 150.31
7.2427716 4.129529 -1.5708303 150.31
7.7795687 4.4050536 -1.4688119 150.48
7.853672 4.4470139 -1.2684237 150.48
8.0517626 4.5591793 -1.0820599 150.48
7.8497767 4.444808 -0.84160095 150.48
7.9844527 4.5210662 -0.64162004 150.48
3.8984466 2.2074318 -1.9946365 150.48
8.0004768 4.530139 -0.42875385 150.48
4.148057 2.3487697 -1.9910949 150.48
8.0644302 4.5663519 -0.21516407 150.48
4.4257503 2.5060089 -1.986015 150.48
23.254791 13.167645 0 150.48
4.7230654 2.6743588 -1.9755083 150.48
23.220688 13.148335 0.61954254 150.48
5.0898023 2.8820174 -1.9764023 150.48
23.173914 13.12185 1.2419142 150.48
5.4675469 3.0959094 -1.9606116 150.48
48.337276 27.370193 3.8843195 150.48
5.9205651 3.3524234 -1.9509612 150.48
48.26313 27.328209 5.1744523 150.48
6.0762291 3.4405656 -1.827969 150.48
48.179207 27.280687 6.4747047 150.48
6.4047375 3.6265781 -1.7439502 150.48
6.9012713 3.9077322 -1.685748 150.48
48.061592 27.214092 9.0742092 150.48
7.2943287 4.1302943 -1.5793474 150.48
7.66434 4.3080654 -1.4444938 150.66
7.9366636 4.4611363 -1.2795575 150.66
8.076436 4.5397015 -1.0834537 150.66
7.8567581 4.4162221 -0.8408578 150.66
7.8194785 4.3952675 -0.62725019 150.66
3.8989913 2.1915925 -1.9913826 150.66
7.8561869 4.4159012 -0.42027569 150.66
4.1570244 2.3366308 -1.9918658 150.66
23.153814 13.014578 -0.61666441 150.66
4.4319773 2.4911797 -1.9852875 150.66
23.224562 13.054344 0 150.66
4.7330823 2.6604285 -1.9761924 150.66
23.183445 13.031233 0.61745358 150.66
5.0988312 2.8660131 -1.9764023 150.66
23.110529 12.990248 1.2363242 150.66
5.4839034 3.0824592 -1.9629946 150.66
48.209103 27.09796 3.8671594 150.66
5.9260402 3.3309808 -1.9493073 150.66
48.180363 27.081804 5.1564312 150.66
6.0819483 3.4186156 -1.8264495 150.66
48.086311 27.02894 6.4507775 150.66
6.4279747 3.6131144 -1.7471781 150.66
6.7566209 3.7978437 -1.6474923 150.66
47.949005 26.951761 9.0369215 150.66
7.3261147 4.1179519 -1.5834208 150.66
7.942174 4.4350934 -1.2784441 150.82001
7.9919577 4.4628935 -1.0704448 150.82001
7.9333892 4.4301877 -0.84773177 150.82001
7.8526249 4.385087 -0.62892437 150.82001
3.9050963 2.180696 -1.9913826 150.82001
8.0481491 4.4942727 -0.42987186 150.82001
4.161922 2.3241134 -1.9910949 150.82001
4.4389167 2.4787936 -1.9852875 150.82001
23.175362 12.941658 0 150.82001
4.7404933 2.6472008 -1.9761924 150.82001
23.101036 12.900152 0.61429691 150.82001
5.108469 2.8526871 -1.9770426 150.82001
23.103107 12.901309 1.233995 150.82001
5.4891562 3.0652716 -1.9618031 150.82001
48.133038 26.878601 3.8550217 150.82001
5.931962 3.3125446 -1.9482049 150.82001
48.061073 26.838413 5.1356235 150.82001
6.0796461 3.395015 -1.822904 150.82001
47.967354 26.786079 6.4247599 150.82001
6.4346409 3.5932522 -1.7462559 150.82001
6.8286891 3.8132977 -1.6624619 150.82001
47.855221 26.723461 9.005146 150.82001
7.3822012 4.1223917 -1.5930486 150.82001
7.641439 4.2357187 -1.435415 151
9.8597727 5.4653616 -1.5843465 151
8.0319996 4.4522099 -1.0739293 151
7.9089508 4.3840032 -0.84364456 151
7.903007 4.3807082 -0.63185412 151
3.9135258 2.1693027 -1.9921961 151
4.1692028 2.3110268 -1.9910949 151
23.062754 12.783894 -0.61220789 151
4.446682 2.4648361 -1.9852875 151
23.119698 12.815457 0 151
4.7454987 2.6304729 -1.9748243 151
23.064503 12.784863 0.61225432 151
5.1140914 2.8347871 -1.975762 151
23.033442 12.767645 1.2281255 151
5.4920797 3.0443094 -1.9594201 151
5.9389763 3.2920282 -1.9471023 151
47.990143 26.60137 5.1190886 151
6.0852056 3.3730843 -1.8213844 151
47.891426 26.546652 6.403388 151
6.451004 3.57585 -1.7476392 151
6.8526125 3.798465 -1.6653726 151
9.8508453 5.4604125 1.8504436 151
6.4960814 3.6008368 -1.3993795 151
9.8846207 5.4408584 -1.5857383 151.17
8.0364733 4.4235697 -1.0727679 151.17
8.0719538 4.4430995 -0.85962194 151.17
7.9124742 4.3553162 -0.63157511 151.17
3.924747 2.1603248 -1.9946365 151.17
7.9879427 4.3968568 -0.42521352 151.17
4.1760416 2.2986465 -1.9910949 151.17
23.018257 12.670093 -0.61002612 151.17
4.4572401 2.4534285 -1.9867425 151.17
23.080526 12.704369 0 151.17
4.7549291 2.6172874 -1.9755083 151.17
23.014753 12.668164 0.60993326 151.17
5.1257997 2.8214283 -1.9770426 151.17
22.999464 12.659749 1.2243056 151.17
5.5010881 3.0280006 -1.9594201 151.17
47.924042 26.37915 3.8253055 151.17
5.9504018 3.2753196 -1.9476535 151.17
47.868237 26.348434 5.0977235 151.17
6.0867119 3.3503494 -1.8188519 151.17
47.780296 26.300028 6.378067 151.17
6.4462414 3.5482478 -1.7434891 151.17
6.9444022 3.8224537 -1.6849164 151.17
9.8531713 5.4235473 1.8478496 151.17
8.0429955 4.3942928 -1.5057753 151.35001
9.8999271 5.4088283 -1.5854599 151.35001
8.06602 4.4068723 -1.0748585 151.35001
8.0683966 4.4081712 -0.85776412 151.35001
8.1502275 4.4528794 -0.64943278 151.35001
3.9299109 2.1471081 -1.9938231 151.35001
12.281337 6.7099123 -0.65263379 151.35001
4.176764 2.2819765 -1.9880116 151.35001
7.7941861 4.2583561 -0.2062047 151.35001
4.460021 2.4367337 -1.98456 151.35001
23.011507 12.572344 0 151.35001
4.7631278 2.6023364 -1.9755083 151.35001
22.954422 12.541156 0.60728723 151.35001
5.1313124 2.8034942 -1.975762 151.35001
22.912889 12.518465 1.2175976 151.35001
5.5038719 3.0070419 -1.9570371 151.35001
5.9522266 3.2520008 -1.9448972 151.35001
47.788254 26.109129 5.0804458 151.35001
6.0887175 3.3265727 -1.8163193 151.35001
47.705791 26.064074 6.3571601 151.35001
6.4590645 3.5289118 -1.7439502 151.35001
6.9426422 3.7931147 -1.6815897 151.35001
47.580795 25.995783 8.9078741 151.35001
7.5286794 4.1132965 -1.6163778 151.35001
47.46949 25.934971 10.191512 151.35001
8.0455894 4.3647633 -1.50383 151.52
8.1298103 4.4104533 -1.2998768 151.52
8.0895357 4.3886042 -1.0762523 151.52
7.9396605 4.3072963 -0.84271562 151.52
8.0915022 4.3896708 -0.64371276 151.52
3.9314463 2.1328247 -1.9913826 151.52
4.1900048 2.2730937 -1.9910949 151.52
22.91596 12.431995 -0.60529107 151.52
4.4688687 2.4243784 -1.9852875 151.52
22.96081 12.456327 0 151.52
4.7708282 2.5881925 -1.9755083 151.52
22.93705 12.443437 0.60584813 151.52
5.1396079 2.7882569 -1.975762 151.52
22.949932 12.450426 1.2175976 151.52
5.5144477 2.9916089 -1.9576328 151.52
47.730042 25.89373 3.7971239 151.52
5.9550896 3.230659 -1.942692 151.52
47.700977 25.877962 5.0629821 151.52
6.0917583 3.3048022 -1.8142934 151.52
47.603069 25.824846 6.3332329 151.52
6.4746385 3.512516 -1.7453336 151.52
6.9280729 3.7585058 -1.6753525 151.52
47.480774 25.758501 8.8748016 151.52
7.5633092 4.1031241 -1.6211917 151.52
47.404568 25.717159 10.161147 151.52
8.0498171 4.3361926 -1.5022087 151.69
9.9144125 5.3405933 -1.5826765 151.69
11.472597 6.1799402 -1.5238972 151.69
8.1923161 4.4129524 -0.65068841 151.69
3.9441915 2.1246164 -1.9946365 151.69
7.9888225 4.3033366 -0.42316386 151.69
4.1983557 2.2615268 -1.9918658 151.69
22.878811 12.324122 -0.6033414 151.69
4.474402 2.4102247 -1.98456 151.69
22.941322 12.357795 0 151.69
4.7784867 2.5740259 -1.9755083 151.69
22.885853 12.327915 0.60352707 151.69
5.1478581 2.7729952 -1.975762 151.69
22.867168 12.31785 1.2112622 151.69
5.5216188 2.9743288 -1.9570371 151.69
47.645061 25.664951 3.7842886 151.69
5.9612641 3.2111521 -1.9415896 151.69
47.60223 25.641878 5.0444036 151.69
6.0947232 3.2830427 -1.8122674 151.69
47.504597 25.589285 6.3100028 151.69
6.4833183 3.492367 -1.7448725 151.69
6.9443607 3.7407167 -1.6765999 151.69
47.367607 25.515493 8.8394594 151.69
7.6429334 4.1170168 -1.6356336 151.69
47.295517 25.476662 10.121525 151.69
8.1312771 4.3471704 -1.5148541 151.87
9.9346352 5.3112879 -1.5832332 151.87
11.490203 6.142931 -1.5236648 151.87
8.2116833 4.3901572 -0.86872536 151.87
12.689253 6.7839708 -1.0061674 151.87
3.9476242 2.110492 -1.9930096 151.87
22.842327 12.212041 -1.2079083 151.87
4.2005572 2.2457159 -1.9895532 151.87
22.832779 12.206936 -0.60111314 151.87
4.4786658 2.3943994 -1.9831051 151.87
22.909481 12.247944 0 151.87
4.7848921 2.558115 -1.9748243 151.87
22.859228 12.221077 0.6018095 151.87
5.1598864 2.7585957 -1.9770426 151.87
22.805328 12.192261 1.2059518 151.87
5.5326195 2.9578674 -1.9576328 151.87
47.565346 25.429544 3.7715931 151.87
5.9696274 3.1915021 -1.9410383 151.87
47.498158 25.393625 5.0248961 151.87
6.0913572 3.2565818 -1.8082154 151.87
47.425335 25.354692 6.2888632 151.87
6.5045552 3.4774871 -1.7476392 151.87
6.9578037 3.7198043 -1.6770157 151.87
47.296116 25.285606 8.8112497 151.87
7.7684922 4.1532173 -1.6597034 151.87
47.196796 25.232508 10.083384 151.87
8.64886 4.5928736 -1.608884 152.03
9.9389334 5.2779508 -1.5815631 152.03
11.477488 6.0949817 -1.5197158 152.03
8.1394911 4.3223786 -0.85980773 152.03
8.0421505 4.2706871 -0.63673711 152.03
3.9535024 2.0994599 -1.9930096 152.03
22.802233 12.108851 -1.2039952 152.03
4.2084422 2.2348425 -1.9903241 152.03
22.782015 12.098115 -0.59888494 152.03
4.4803987 2.379262 -1.9809227 152.03
22.846443 12.13233 0 152.03
4.7903571 2.5438616 -1.9741403 152.03
22.766121 12.089675 0.59846711 152.03
5.1625495 2.7415099 -1.9751219 152.03
22.768707 12.091049 1.2022251 152.03
5.5476027 2.9459877 -1.9600158 152.03
47.45644 25.201172 3.7573626 152.03
5.9751205 3.1730158 -1.9399357 152.03
47.401806 25.172159 5.007247 152.03
6.0935922 3.235929 -1.8061893 152.03
47.313496 25.125263 6.2647042 152.03
6.5142407 3.4593093 -1.7476392 152.03
6.9750752 3.70403 -1.678679 152.03
47.193981 25.061798 8.77915 152.03
7.7800598 4.1315074 -1.6597034 152.03
47.098698 25.011198 10.047463 152.03
8.7470503 4.6098456 -1.6244476 152.21001
9.9624739 5.2503943 -1.5826765 152.21001
11.484277 6.0524111 -1.5180897 152.21001
11.738037 6.1861472 -1.237878 152.21001
12.655156 6.6694841 -1.0003078 152.21001
3.9600785 2.0870292 -1.9930096 152.21001
22.753559 11.991516 -1.1994301 152.21001
4.2154422 2.2216103 -1.9903241 152.21001
22.738543 11.983602 -0.59674954 152.21001
4.4944439 2.368649 -1.9838326 152.21001
22.820751 12.026927 0 152.21001
4.7966628 2.5279236 -1.9734563 152.21001
22.765074 11.997585 0.59744585 152.21001
5.1761656 2.7279279 -1.9770426 152.21001
22.727047 11.977544 1.1980326 152.21001
5.5500741 2.9249845 -1.9576328 152.21001
47.410061 24.985916 3.7474573 152.21001
5.9884605 3.1560216 -1.9410383 152.21001
47.325623 24.941416 4.9908977 152.21001
6.0985932 3.2140634 -1.8046699 152.21001
47.230518 24.891293 6.2433324 152.21001
6.5302415 3.4415493 -1.7490226 152.21001
6.9797549 3.6784506 -1.6770157 152.21001
47.108368 24.826918 8.7486715 152.21001
6.5967526 3.4766018 -1.404934 152.21001
46.984039 24.761395 10.00636 152.21001
8.7939138 4.6012564 -1.6306082 152.38
9.9674788 5.2153029 -1.5810064 152.38
11.449382 5.9906821 -1.5111206 152.38
11.763398 6.1549854 -1.2386211 152.38
12.651908 6.6198821 -0.99849415 152.38
3.9743478 2.0795057 -1.9970769 152.38
22.705841 11.880421 -1.1950512 152.38
4.2269206 2.2116599 -1.9926367 152.38
22.703133 11.879004 -0.59489268 152.38
4.501452 2.3553033 -1.9838326 152.38
22.744694 11.900749 0 152.38
4.8124681 2.5180368 -1.9768764 152.38
22.701363 11.878077 0.59484625 152.38
5.1792002 2.7099228 -1.9751219 152.38
22.668667 11.86097 1.1930947 152.38
5.5621119 2.9102743 -1.9588243 152.38
47.252411 24.723969 3.7291811 152.38
5.9995017 3.1391308 -1.9415896 152.38
47.219448 24.706722 4.9719481 152.38
6.0995312 3.1914694 -1.8021374 152.38
47.140476 24.665401 6.2217283 152.38
6.5421486 3.4230609 -1.7494837 152.38
6.9958382 3.6604459 -1.6782632 152.38
47.017448 24.60103 8.7181931 152.38
46.891865 24.53532 9.9711809 152.38
8.8065739 4.5726972 -1.630284 152.56
9.9785404 5.1812258 -1.5801713 152.56
11.448752 5.9446139 -1.5085653 152.56
11.646593 6.0473399 -1.2243158 152.56
8.2229633 4.2696652 -0.64789814 152.56
3.9711318 2.0619578 -1.9921961 152.56
8.1720371 4.2432227 -0.42940602 152.56
4.2289348 2.1958184 -1.9903241 152.56
22.658712 11.765238 -0.59275728 152.56
4.5071759 2.3402915 -1.9831051 152.56
22.712744 11.793292 0 152.56
4.815351 2.5003076 -1.9748243 152.56
22.667585 11.769844 0.59298939 152.56
5.1927328 2.6962578 -1.9770426 152.56
22.62071 11.745505 1.1886227 152.56
5.566144 2.8901467 -1.9570371 152.56
47.149242 24.481621 3.7149508 152.56
6.0059218 3.1184955 -1.940487 152.56
47.116566 24.464655 4.9529982 152.56
6.1009417 3.1678333 -1.7996048 152.56
47.043198 24.426559 6.1987305 152.56
6.5494156 3.4006975 -1.7485614 152.56
7.0090394 3.6393511 -1.678679 152.56
46.947376 24.376806 8.6909561 152.56
6.6353097 3.445297 -1.4086372 152.56
46.823936 24.31271 9.9404459 152.56
8.8158007 4.546278 -1.6296355 152.72
9.9894505 5.1515245 -1.5796146 152.72
11.451184 5.9053359 -1.5067068 152.72
11.582021 5.9728079 -1.2157696 152.72
3.9866178 2.0558848 -1.9970769 152.72
22.656973 11.684122 -1.188809 152.72
4.2399707 2.186538 -1.9926367 152.72
22.604403 11.657011 -0.59048259 152.72
4.518661 2.3302577 -1.9852875 152.72
22.640713 11.675736 0 152.72
4.8223147 2.4868507 -1.9748243 152.72
22.634613 11.672591 0.59127176 152.72
5.1884537 2.6756675 -1.9725609 152.72
22.59305 11.651157 1.1854551 152.72
5.5758901 2.8754668 -1.9576328 152.72
47.0667 24.272133 3.7030921 152.72
6.0094805 3.0990682 -1.9388331 152.72
47.027184 24.251755 4.9364634 152.72
6.1046052 3.1481237 -1.7980853 152.72
46.96822 24.221346 6.179914 152.72
6.557157 3.3815029 -1.7481003 152.72
7.0243912 3.6224542 -1.6799265 152.72
46.838108 24.154249 8.6582079 152.72
6.643158 3.4258535 -1.4082668 152.72
46.739674 24.103487 9.9082289 152.72
8.8204679 4.515604 -1.6280142 152.89
10.008217 5.1236677 -1.5801713 152.89
11.468656 5.8713336 -1.5067068 152.89
11.592602 5.9347873 -1.2150265 152.89
8.3646297 4.2822399 -0.65710598 152.89
3.9878211 2.0415494 -1.9946365 152.89
13.794537 7.0620589 -0.72269529 152.89
4.2447968 2.1731071 -1.9918658 152.89
22.564138 11.551623 -0.58853292 152.89
4.5222383 2.3151424 -1.9838326 152.89
22.620068 11.580256 0 152.89
4.8330178 2.4742446 -1.9761924 152.89
22.580156 11.559824 0.58895069 152.89
5.2081757 2.6663053 -1.9770426 152.89
22.540382 11.539461 1.1808898 152.89
5.5877957 2.8606503 -1.9588243 152.89
46.960915 24.041458 3.6891408 152.89
6.0169382 3.080348 -1.9382819 152.89
46.896858 24.008665 4.9152837 152.89
6.1087523 3.127352 -1.7965658 152.89
46.873665 23.99679 6.1580777 152.89
6.5706258 3.3638062 -1.7490226 152.89
7.0385914 3.6033792 -1.6807581 152.89
46.754978 23.936029 8.6296749 152.89
6.6218028 3.3900061 -1.4016013 152.89
46.620289 23.867077 9.8678665 152.89
8.8328505 4.4869776 -1.62769 153.07001
10.022498 5.0913038 -1.579893 153.07001
11.449852 5.8163819 -1.5018286 153.07001
11.739018 5.9632745 -1.228403 153.07001
13.438663 6.826673 -1.0540203 153.07001
3.994215 2.0290112 -1.9946365 153.07001
13.702659 6.9607792 -0.71673262 153.07001
4.2516026 2.1597612 -1.9918658 153.07001
22.521881 11.440834 -0.58649033 153.07001
4.5344725 2.3034551 -1.986015 153.07001
22.552916 11.456598 0 153.07001
4.8374157 2.4573467 -1.9748243 153.07001
22.552187 11.456229 0.5872795 153.07001
5.2114587 2.6473558 -1.9751219 153.07001
22.523088 11.441447 1.1780949 153.07001
5.5933509 2.8413522 -1.9576328 153.07001
46.922371 23.835978 3.680212 153.07001
6.0248713 3.0605593 -1.9377307 153.07001
46.831795 23.789967 4.9006071 153.07001
6.1116471 3.1046402 -1.7945398 153.07001
46.787655 23.767544 6.1369381 153.07001
6.55687 3.3308079 -1.7425669 153.07001
7.0533652 3.5830212 -1.6815897 153.07001
46.676865 23.711264 8.6014662 153.07001
46.535583 23.639494 9.8341684 153.07001
8.8471088 4.4631834 -1.6280142 153.23
10.034908 5.0624037 -1.5796146 153.23
11.462502 5.7825956 -1.5013639 153.23
11.757403 5.9313669 -1.2285887 153.23
13.407799 6.763957 -1.0501139 153.23
3.996603 2.0162036 -1.9930096 153.23
13.641776 6.8819942 -0.71254009 153.23
4.2543221 2.1462176 -1.9903241 153.23
22.468056 11.334669 -0.58426213 153.23
4.5408869 2.2907836 -1.986015 153.23
22.547321 11.374658 0 153.23
4.8409033 2.4421356 -1.9734563 153.23
22.489477 11.345476 0.5848192 153.23
5.2205229 2.6336458 -1.975762 153.23
22.426523 11.313718 1.1713868 153.23
5.5927405 2.8214221 -1.9546541 153.23
46.83556 23.627571 3.6682138 153.23
6.0299616 3.041991 -1.9366281 153.23
46.770035 23.594517 4.8872304 153.23
6.1099286 3.0823326 -1.7915008 153.23
46.680035 23.549112 6.1141729 153.23
6.5539827 3.3063488 -1.7393391 153.23
7.0703297 3.5668352 -1.683253 153.23
46.573746 23.495491 8.5703392 153.23
46.454014 23.435089 9.8030624 153.23
8.8636255 4.4347038 -1.6283385 153.42
10.048099 5.0273266 -1.5790581 153.42
11.458521 5.7329979 -1.4983441 153.42
11.707553 5.8575954 -1.2213432 153.42
13.394469 6.7016039 -1.0473237 153.42
4.0081692 2.0053918 -1.99545 153.42
13.589482 6.7991738 -0.7086271 153.42
4.2548141 2.1287949 -1.9872407 153.42
22.435781 11.225208 -0.5824517 153.42
4.5434604 2.2732122 -1.9838326 153.42
22.463291 11.238973 0 153.42
4.8523364 2.4277511 -1.9748243 153.42
22.462603 11.238628 0.583148 153.42
5.2258387 2.6146238 -1.9744816 153.42
22.413891 11.214256 1.1687782 153.42
5.6106033 2.8071318 -1.9576328 153.42
46.740578 23.385534 3.6546812 153.42
6.0382967 3.0211179 -1.9360768 153.42
46.696648 23.363554 4.871439 153.42
6.1149254 3.0594573 -1.7899812 153.42
46.617527 23.323969 6.0958209 153.42
6.5527282 3.2785015 -1.7361113 153.42
7.07862 3.5416188 -1.6824214 153.42
46.503147 23.266741 8.5431023 153.42
7.9289641 3.9670684 -1.6704422 153.42
46.375038 23.202644 9.7701054 153.42
8.8749771 4.4075074 -1.6280142 153.59
10.061196 4.9966102 -1.5787797 153.59
11.463027 5.6927896 -1.4967179 153.59
11.699912 5.8104324 -1.2187421 153.59
13.342818 6.6263356 -1.0417432 153.59
4.0141015 1.9934906 -1.99545 153.59
13.521919 6.715281 -0.70406193 153.59
4.2660704 2.1186237 -1.9895532 153.59
22.386612 11.117682 -0.58031631 153.59
4.5535221 2.2613788 -1.9852875 153.59
22.451757 11.150033 0 153.59
4.862885 2.415015 -1.9761924 153.59
22.422428 11.135468 0.58124471 153.59
5.2318764 2.5982642 -1.9738413 153.59
22.364758 11.106828 1.1644925 153.59
5.6154876 2.788774 -1.9564413 153.59
46.641788 23.163334 3.641567 153.59
6.0403466 2.9997683 -1.9338717 153.59
46.59811 23.141642 4.8539753 153.59
6.1153116 3.0369976 -1.7874488 153.59
46.529961 23.107796 6.0753784 153.59
6.5711417 3.2633727 -1.7384168 153.59
46.495785 23.090822 7.2960105 153.59
7.0750799 3.5136395 -1.6790948 153.59
46.412895 23.049658 8.5139208 153.59
7.9336586 3.9400284 -1.6689609 153.59
46.306374 22.996758 9.7412224 153.59
8.8791637 4.3767929 -1.626393 153.75999
10.065319 4.961482 -1.5771096 153.75999
11.456704 5.6473355 -1.493698 153.75999
11.722459 5.7783337 -1.2192996 153.75999
13.308735 6.5602541 -1.0375578 153.75999
4.0216374 1.9823796 -1.9962634 153.75999
13.49161 6.6503983 -0.70145327 153.75999
4.2756481 2.1075888 -1.9910949 153.75999
22.344177 11.014081 -0.57836658 153.75999
4.5585408 2.2470345 -1.98456 153.75999
22.398634 11.040924 0 153.75999
4.8666577 2.3989141 -1.9748243 153.75999
22.376459 11.029993 0.57920218 153.75999
5.2480597 2.5869181 -1.9770426 153.75999
22.338478 11.011272 1.161418 153.75999
5.6151752 2.7678797 -1.9534626 153.75999
46.585045 22.963095 3.6318011 153.75999
6.0457716 2.9801331 -1.9327692 153.75999
46.504028 22.923161 4.837069 153.75999
6.1190896 3.0162735 -1.7859292 153.75999
46.421925 22.882687 6.0523806 153.75999
6.5685763 3.2378383 -1.735189 153.75999
7.0942473 3.4969566 -1.6811739 153.75999
46.307602 22.826336 8.4821453 153.75999
7.9523659 3.9199474 -1.6704422 153.75999
46.194588 22.770628 9.7034512 153.75999
8.888566 4.3486938 -1.6257446 153.92999
10.081775 4.9324665 -1.5773879 153.92999
11.391329 5.5731606 -1.4830121 153.92999
11.768172 5.7575293 -1.222272 153.92999
13.29409 6.5040784 -1.0349071 153.92999
4.0275016 1.9704384 -1.9962634 153.92999
13.297729 6.5058589 -0.69036639 153.92999
4.2785673 2.0932713 -1.9895532 153.92999
22.306713 10.913466 -0.57655615 153.92999
4.5651879 2.2334991 -1.98456 153.92999
22.370213 10.944533 0 153.92999
4.873754 2.3844638 -1.9748243 153.92999
22.348021 10.933677 0.57762384 153.92999
5.2472024 2.5671721 -1.9738413 153.92999
22.274145 10.897532 1.156387 153.92999
5.6336527 2.7562411 -1.9570371 153.92999
46.516769 22.758137 3.6211982 153.92999
6.0545874 2.9621818 -1.9327692 153.92999
46.421585 22.711567 4.8214631 153.92999
6.1280122 2.9981043 -1.7859292 153.92999
46.332588 22.668028 6.0319381 153.92999
6.5833988 3.2209005 -1.7365724 153.92999
46.322437 22.663059 7.2475786 153.92999
7.0993199 3.4733129 -1.6799265 153.92999
46.227985 22.616852 8.4552336 153.92999
7.9621959 3.8954713 -1.6700718 153.92999
46.122475 22.565229 9.6741972 153.92999
8.9014292 4.3223019 -1.6257446 154.10001
10.091021 4.8999362 -1.5765529 154.10001
11.198743 5.4378176 -1.4558328 154.10001
11.842525 5.7504215 -1.2282171 154.10001
12.43391 6.0375824 -0.9665457 154.10001
4.0333304 1.9584799 -1.9962634 154.10001
13.245088 6.431469 -0.68663973 154.10001
4.284759 2.0805674 -1.9895532 154.10001
22.261654 10.809678 -0.57455999 154.10001
4.5734706 2.220758 -1.9852875 154.10001
22.319828 10.837926 0 154.10001
4.8808074 2.3699927 -1.9748243 154.10001
22.277842 10.817539 0.57497782 154.10001
5.2582054 2.5532472 -1.9751219 154.10001
22.252466 10.805217 1.153592 154.10001
5.638371 2.7378457 -1.9558456 154.10001
46.363338 22.512827 3.604038 154.10001
6.0616202 2.9433646 -1.9322178 154.10001
46.338295 22.500666 4.8058572 154.10001
6.1212163 2.9723029 -1.7813706 154.10001
46.281704 22.473188 6.0166063 154.10001
6.5754199 3.1928525 -1.7319611 154.10001
7.1148739 3.454797 -1.6811739 154.10001
46.135109 22.402006 8.4260521 154.10001
7.9754868 3.8726883 -1.6704422 154.10001
46.054855 22.363037 9.6460543 154.10001
8.9106588 4.2941585 -1.6250961 154.27
10.107299 4.8708339 -1.5768312 154.27
11.161143 5.3786945 -1.4488639 154.27
11.877475 5.7239041 -1.230075 154.27
12.49131 6.0197191 -0.96961498 154.27
4.0358315 1.9449178 -1.9946365 154.27
13.3487 6.4329057 -0.69101858 154.27
4.2925758 2.0686462 -1.9903241 154.27
22.221581 10.708858 -0.57270312 154.27
4.5817175 2.2079871 -1.986015 154.27
22.267206 10.730845 0 154.27
4.8861246 2.3546848 -1.9741403 154.27
22.259405 10.727087 0.57367802 154.27
5.264051 2.5368121 -1.9744816 154.27
22.187241 10.692309 1.148561 154.27
5.6430297 2.7194467 -1.9546541 154.27
46.277161 22.301542 3.5921793 154.27
6.0668626 2.9236972 -1.9311153 154.27
46.277481 22.301699 4.7926664 154.27
6.1247797 2.9516079 -1.7798512 154.27
46.253338 22.290064 6.0042944 154.27
6.5883708 3.1750185 -1.7328835 154.27
46.252712 22.289761 7.215847 154.27
7.1215682 3.431973 -1.6803423 154.27
46.231598 22.279587 8.4315634 154.27
7.9851718 3.8481543 -1.6700718 154.27
46.214844 22.271513 9.6656799 154.27
8.9197998 4.2659979 -1.6244476 154.44
10.116345 4.8382597 -1.5759962 154.44
11.166301 5.3404131 -1.4474699 154.44
11.903388 5.6929336 -1.2310039 154.44
12.404723 5.932703 -0.96152323 154.44
4.0432329 1.933723 -1.99545 154.44
13.376739 6.3975806 -0.69148439 154.44
4.29703 2.0551045 -1.9895532 154.44
22.181105 10.608371 -0.57084626 154.44
4.5865679 2.1935794 -1.9852875 154.44
22.248428 10.640569 0 154.44
4.8913941 2.3393662 -1.9734563 154.44
22.179302 10.607509 0.57079983 154.44
5.2630081 2.5170946 -1.9712805 154.44
22.177414 10.606606 1.1464181 154.44
5.6510735 2.7026916 -1.9546541 154.44
46.470917 22.225256 3.6020849 154.44
6.075511 2.9056838 -1.9311153 154.44
46.463814 22.221859 4.8051138 154.44
6.1317649 2.9325876 -1.7793447 154.44
46.441128 22.21101 6.0200906 154.44
6.5942507 3.1537771 -1.7319611 154.44
46.477657 22.228479 7.2406197 154.44
7.1405439 3.4150481 -1.6824214 154.44
46.445274 22.212992 8.4584761 154.44
8.0071926 3.8295329 -1.6722938 154.44
46.443844 22.212309 9.699748 154.44
8.9331579 4.2379546 -1.6244476 154.62
10.127917 4.8047566 -1.5754395 154.62
11.086106 5.2593288 -1.4349257 154.62
12.05795 5.7203784 -1.2451235 154.62
13.191195 6.257998 -1.0209558 154.62
4.0591922 1.9257101 -2.0003309 154.62
4.3067999 2.0431769 -1.9910949 154.62
22.133032 10.50007 -0.5687573 154.62
4.5917535 2.1783609 -1.98456 154.62
22.169714 10.517472 0 154.62
4.9021153 2.325599 -1.9748243 154.62
22.167355 10.516353 0.56963933 154.62
5.2760253 2.5029845 -1.9732012 154.62
22.147451 10.506911 1.1431572 154.62
5.6509113 2.6808331 -1.9516753 154.62
6.0863461 2.8874066 -1.9316666 154.62
46.61076 22.11248 4.8131027 154.62
6.1409473 2.9133098 -1.7793447 154.62
46.557343 22.087139 6.0261307 154.62
6.5759935 3.1196988 -1.7245833 154.62
7.1583076 3.3959527 -1.6840847 154.62
8.0138569 3.8018315 -1.6711828 154.62
8.9464273 4.2098694 -1.6244476 154.8
10.135794 4.7695422 -1.5743262 154.8
11.059437 5.2041759 -1.4293505 154.8
12.245234 5.7621694 -1.2625872 154.8
13.151217 6.1884928 -1.0163518 154.8
4.066875 1.9137262 -2.0011442 154.8
4.3131976 2.0296366 -1.9910949 154.8
22.102589 10.400688 -0.56713253 154.8
4.6002603 2.1647182 -1.9852875 154.8
22.184549 10.439257 0 154.8
4.9110975 2.3109872 -1.9755083 154.8
22.126106 10.411756 0.56773603 154.8
5.2821479 2.4855902 -1.9725609 154.8
22.077312 10.388795 1.1378468 154.8
5.6610332 2.6638801 -1.9522711 154.8
6.0901685 2.8658159 -1.9300128 154.8
6.1465683 2.8923554 -1.7783316 154.8
6.5734358 3.093224 -1.7213554 154.8
7.1671705 3.3726144 -1.6836689 154.8
8.0293179 3.7783101 -1.6719234 154.8
46.851025 22.046419 9.7556639 154.8
8.9606676 4.1841412 -1.6247718 154.97
10.151695 4.7402859 -1.5746045 154.97
11.06763 5.1679773 -1.4284213 154.97
12.224385 5.7081189 -1.2586857 154.97
13.129749 6.1308742 -1.0132825 154.97
4.0692244 1.9001051 -1.9995173 154.97
4.3175282 2.0160494 -1.9903241 154.97
22.057259 10.299533 -0.56518286 154.97
4.6083508 2.1518476 -1.986015 154.97
22.094009 10.316693 0 154.97
4.9196358 2.2972007 -1.9761924 154.97
22.050013 10.296149 0.56499714 154.97
5.2912164 2.4707086 -1.9732012 154.97
22.070024 10.305493 1.1358902 154.97
5.6689119 2.6470716 -1.9522711 154.97
6.0986447 2.8477333 -1.9300128 154.97
47.0499 21.969728 4.8445001 154.97
6.1568761 2.8749242 -1.7788382 154.97
47.047775 21.968737 6.0721264 154.97
6.6019812 3.0827639 -1.7264278 154.97
47.038399 21.964357 7.2960105 154.97
7.1753731 3.3505065 -1.683253 154.97
47.035011 21.962776 8.528512 154.97
8.0387125 3.7536385 -1.6715531 154.97
47.008835 21.950554 9.7749195 154.97
8.9712524 4.1567063 -1.6244476 155.14
10.162121 4.7084789 -1.5740478 155.14
10.990993 5.0925255 -1.4165739 155.14
12.067812 5.591455 -1.2408504 155.14
13.109867 6.0742764 -1.0103527 155.14
4.0748444 1.8880231 -1.9995173 155.14
4.3285146 2.0055578 -1.9926367 155.14
22.018782 10.202101 -0.56341881 155.14
4.6113343 2.1365983 -1.98456 155.14
22.035604 10.209894 0 155.14
4.9230194 2.2810135 -1.9748243 155.14
22.004269 10.195375 0.56304747 155.14
5.2985239 2.4549983 -1.9732012 155.14
21.991743 10.189571 1.1303003 155.14
5.6767411 2.63024 -1.9522711 155.14
47.258518 21.896585 3.6421249 155.14
6.1018343 2.8272011 -1.9283589 155.14
47.244968 21.890306 4.8578768 155.14
6.1618681 2.8550169 -1.7778251 155.14
47.235313 21.885834 6.0879226 155.14
6.6181622 3.0664346 -1.7282722 155.14
47.238136 21.887142 7.3168864 155.14
7.203033 3.3374264 -1.6874113 155.14
47.245014 21.890327 8.5547752 155.14
8.039114 3.7248132 -1.6693313 155.14
47.205723 21.872122 9.8023224 155.14
8.9806795 4.1268539 -1.6237991 155.32001
10.173264 4.6748767 -1.5734911 155.32001
10.963616 5.0380645 -1.4109987 155.32001
13.089002 6.0147333 -1.0072834 155.32001
4.0807557 1.8752123 -1.9995173 155.32001
4.3280859 1.988867 -1.9895532 155.32001
21.998037 10.108665 -0.56207258 155.32001
4.6264882 2.1259904 -1.9881974 155.32001
22.045763 10.130596 0 155.32001
4.9301615 2.2655361 -1.9748243 155.32001
22.021656 10.119518 0.56267607 155.32001
5.2993236 2.4351759 -1.9706402 155.32001
21.989155 10.104583 1.1285301 155.32001
5.6780372 2.6092043 -1.9498881 155.32001
47.417717 21.789663 3.6491005 155.32001
6.107192 2.8064122 -1.9272563 155.32001
47.441978 21.800812 4.8710675 155.32001
6.172565 2.8364527 -1.7783316 155.32001
47.426579 21.793734 6.1037192 155.32001
6.6189213 3.0415649 -1.7259666 155.32001
47.409245 21.785769 7.3327522 155.32001
7.233036 3.3237662 -1.6919854 155.32001
47.433697 21.797007 8.5764999 155.32001
8.0454187 3.6970773 -1.6682204 155.32001
47.393856 21.778698 9.8271322 155.32001
8.9867821 4.0993018 -1.6228263 155.48
10.180873 4.6439834 -1.572656 155.48
10.928845 4.9851699 -1.4047265 155.48
11.968521 5.4594154 -1.2272882 155.48
13.074888 5.9640827 -1.0049118 155.48
4.0876384 1.8645676 -2.0003309 155.48
4.330265 1.9752413 -1.9880116 155.48
21.951595 10.013174 -0.56016934 155.48
4.6239319 2.1091967 -1.98456 155.48
21.977526 10.025002 0 155.48
4.9381785 2.2525396 -1.9755083 155.48
21.960691 10.017323 0.56040144 155.48
5.3061032 2.4203677 -1.9706402 155.48
21.935492 10.005828 1.1243376 155.48
5.6939864 2.5972998 -1.9528668 155.48
47.612705 21.718435 3.6594245 155.48
6.1220021 2.7925382 -1.9294615 155.48
47.62587 21.72444 4.8837004 155.48
6.1822219 2.8200076 -1.7788382 155.48
47.617378 21.720566 6.1204448 155.48
6.6043711 3.0125699 -1.7199721 155.48
7.2832265 3.3222282 -1.7015493 155.48
47.614685 21.719337 8.5982237 155.48
8.0521355 3.6729643 -1.6674798 155.48
47.595753 21.710703 9.8563862 155.48
8.9996166 4.0710487 -1.6228263 155.66
10.191803 4.6103439 -1.5720993 155.66
10.935403 4.9467177 -1.403565 155.66
13.04448 5.9007754 -1.0011449 155.66
4.0884819 1.8494576 -1.9978904 155.66
4.3431749 1.9646701 -1.9910949 155.66
21.90461 9.9087257 -0.55817318 155.66
4.6322327 2.0954278 -1.9852875 155.66
21.9342 9.9221125 0 155.66
4.9503679 2.2393386 -1.9775605 155.66
21.922827 9.9169664 0.55863738 155.66
5.3257651 2.4091527 -1.9751219 155.66
21.884905 9.8998127 1.1201451 155.66
5.6951599 2.5762513 -1.9504838 155.66
47.835213 21.638643 3.6712832 155.66
6.1167316 2.7669528 -1.9250513 155.66
47.831776 21.637089 4.89782 155.66
6.1857624 2.7981794 -1.7773187 155.66
47.821125 21.632269 6.1378675 155.66
6.6067104 2.9885986 -1.7181276 155.66
47.840843 21.64119 7.3795147 155.66
7.28828 3.2969122 -1.7003018 155.66
47.824734 21.633904 8.6238384 155.66
8.0636339 3.6476498 -1.6674798 155.66
47.796238 21.621014 9.8837891 155.66
9.0116558 4.0443287 -1.6228263 155.83
10.210858 4.5825167 -1.5729344 155.83
10.906537 4.8947296 -1.3979897 155.83
13.023705 5.8448911 -0.99821514 155.83
4.0922847 1.8365706 -1.9970769 155.83
4.3506689 1.9525306 -1.9918658 155.83
13.394937 6.0114951 -0.34087372 155.83
4.641829 2.0832 -1.9867425 155.83
21.912453 9.8340597 0 155.83
4.9535608 2.2231019 -1.9761924 155.83
21.886484 9.8224049 0.55696625 155.83
5.3311615 2.3925645 -1.9744816 155.83
21.837629 9.8004799 1.116232 155.83
5.7027788 2.5593421 -1.9504838 155.83
48.032082 21.556252 3.6814678 155.83
6.1196523 2.7464304 -1.9233974 155.83
48.028389 21.554594 4.9113822 155.83
6.1940374 2.7798135 -1.7773187 155.83
48.028271 21.554541 6.1562195 155.83
6.5747118 2.9506557 -1.7075219 155.83
7.310524 3.2808797 -1.7032126 155.83
48.023754 21.552513 8.6481571 155.83
8.0762148 3.6245131 -1.66785 155.83
47.985699 21.535435 9.9097109 155.83
9.0236158 4.0175729 -1.6228263 156
10.220791 4.5505896 -1.5723777 156
10.848423 4.830029 -1.3886977 156
11.94117 5.3165512 -1.2194853 156
13.000893 5.7883701 -0.99514586 156
4.0927081 1.8221911 -1.9946365 156
4.3564429 1.9396133 -1.9918658 156
13.370703 5.9530201 -0.33980602 156
4.6445856 2.0679028 -1.9852875 156
21.839218 9.7234459 0 156
4.9618521 2.2091589 -1.9768764 156
21.846121 9.7265196 0.55520219 156
5.3399677 2.3775067 -1.9751219 156
21.817335 9.7137032 1.1137166 156
5.7051148 2.5400808 -1.9486966 156
48.256222 21.485054 3.6937449 156
6.120749 2.7251332 -1.9211924 156
48.217655 21.467884 4.9242015 156
6.2022581 2.7614231 -1.7773187 156
48.228115 21.472542 6.1736417 156
6.5887713 2.9335101 -1.7089052 156
7.3363109 3.266336 -1.706955 156
48.226315 21.471739 8.6731234 156
8.0815468 3.5981364 -1.6667391 156
48.185841 21.453718 9.9378538 156
9.0275793 3.9891677 -1.6215293 156.16
10.231647 4.5212293 -1.5720993 156.16
10.803725 4.7740231 -1.3812641 156.16
12.971384 5.7318826 -0.99165803 156.16
4.0961094 1.8100165 -1.9938231 156.16
4.3618422 1.9274403 -1.9918658 156.16
4.6520462 2.0556777 -1.986015 156.16
21.820551 9.6422129 0 156.16
4.9611259 2.1922557 -1.9741403 156.16
21.811016 9.6379986 0.55362386 156.16
5.339654 2.3595223 -1.9725609 156.16
21.75666 9.6139803 1.1092446 156.16
5.7174249 2.5264542 -1.9504838 156.16
48.449249 21.409081 3.7039292 156.16
6.1213012 2.704922 -1.9189873 156.16
48.42131 21.396736 4.9388785 156.16
6.2099452 2.7440925 -1.7773187 156.16
48.40963 21.391573 6.1892061 156.16
6.5684562 2.9025137 -1.7015274 156.16
7.3489823 3.2474177 -1.7077867 156.16
48.425083 21.398403 8.6980896 156.16
8.0879679 3.5739658 -1.6659986 156.16
48.387585 21.381832 9.9671078 156.16
9.0407581 3.9592092 -1.6215293 156.35001
10.237513 4.4833026 -1.5707076 156.35001
10.812219 4.734983 -1.3803349 156.35001
12.959251 5.6752305 -0.9892863 156.35001
4.10711 1.7986223 -1.9962634 156.35001
4.3699002 1.9137056 -1.9926367 156.35001
4.6588373 2.0402396 -1.986015 156.35001
21.786453 9.5409174 0 156.35001
4.9735327 2.1780536 -1.9761924 156.35001
21.765932 9.53193 0.55167419 156.35001
5.3457131 2.3410423 -1.9719206 156.35001
21.724371 9.51373 1.1059837 156.35001
5.7170272 2.5036514 -1.9475051 156.35001
48.658875 21.309126 3.7145321 156.35001
6.1284766 2.6838369 -1.9184361 156.35001
48.62516 21.294361 4.9524407 156.35001
6.2172384 2.7227082 -1.7768122 156.35001
48.627689 21.295469 6.2080226 156.35001
6.5726972 2.8783741 -1.7001439 156.35001
7.3023667 3.1979175 -1.6944803 156.35001
48.633167 21.297869 8.7227325 156.35001
8.1033754 3.5487022 -1.6667391 156.35001
48.600449 21.283541 9.9963617 156.35001
9.0481596 3.932374 -1.620881 156.50999
10.244543 4.4523282 -1.5698726 156.50999
10.772566 4.6818094 -1.3735981 156.50999
12.934793 5.6215243 -0.98621702 156.50999
4.1087656 1.7856895 -1.9946365 156.50999
4.3684573 1.8985528 -1.9895532 156.50999
4.6679339 2.0287068 -1.9874699 156.50999
21.715796 9.4377909 0 156.50999
4.9761486 2.1626582 -1.9748243 156.50999
21.730118 9.4440145 0.55009586 156.50999
5.3574429 2.3283708 -1.9738413 156.50999
21.694054 9.4283409 1.1030955 156.50999
5.7239962 2.4876766 -1.9475051 156.50999
48.842613 21.227238 3.7240191 156.50999
6.1288943 2.6636472 -1.9162309 156.50999
48.843327 21.227547 4.9686036 156.50999
6.223043 2.7045648 -1.7763057 156.50999
48.832714 21.222935 6.2266068 156.50999
6.5985579 2.8677654 -1.7047552 156.50999
7.2502666 3.1510012 -1.6803423 156.50999
48.817345 21.216255 8.7451048 156.50999
8.1168594 3.5276263 -1.6674798 156.50999
48.807503 21.211979 10.026727 156.50999
9.0604687 3.903929 -1.620881 156.69
10.243929 4.4138527 -1.5676458 156.69
10.768977 4.6400828 -1.3712752 156.69
12.051877 5.192852 -1.2243158 156.69
12.915745 5.5650711 -0.98342675 156.69
4.1143551 1.7727727 -1.9946365 156.69
13.065331 5.6295238 -0.66344118 156.69
4.3845692 1.8892012 -1.9941783 156.69
4.6725736 2.0132949 -1.9867425 156.69
21.706766 9.3529024 0 156.69
4.9880962 2.1492457 -1.9768764 156.69
21.704592 9.351965 0.54870319 156.69
5.3647313 2.3115284 -1.9738413 156.69
21.657515 9.3316813 1.0997416 156.69
5.7300301 2.4689264 -1.9469093 156.69
49.000675 21.113165 3.7309947 156.69
6.1284041 2.6405759 -1.9134746 156.69
49.032303 21.126791 4.9810514 156.69
6.2315087 2.6850011 -1.7763057 156.69
49.04327 21.131517 6.2449584 156.69
6.6307693 2.8570325 -1.7107497 156.69
7.2206044 3.1111777 -1.6711942 156.69
49.046875 21.13307 8.7742863 156.69
8.1260967 3.5013313 -1.6671095 156.69
48.984009 21.105982 10.049315 156.69
9.0672436 3.8731196 -1.6199082 156.87
10.246818 4.3769808 -1.5659758 156.87
10.763407 4.5976448 -1.3687198 156.87
12.077288 5.1588755 -1.2252446 156.87
12.892799 5.5072255 -0.98035747 156.87
4.1215844 1.760556 -1.99545 156.87
13.059068 5.578248 -0.66223001 156.87
4.39218 1.8761423 -1.9949492 156.87
4.6771622 1.9978738 -1.986015 156.87
21.667992 9.2555933 0 156.87
4.9930954 2.1328263 -1.9761924 156.87
21.651121 9.2483873 0.54661423 156.87
5.3719668 2.2946632 -1.9738413 156.87
21.607723 9.2298498 1.0957353 156.87
5.7377582 2.4509127 -1.9469093 156.87
49.250237 21.037493 3.744946 156.87
6.1349015 2.6205547 -1.9129232 156.87
49.259586 21.041485 4.9974003 156.87
6.2399135 2.665411 -1.7763057 156.87
49.246422 21.035862 6.2623811 156.87
6.6522398 2.8415384 -1.7139776 156.87
7.363472 3.1453447 -1.7019651 156.87
49.263664 21.043226 8.801199 156.87
8.1370564 3.4757853 -1.6671095 156.87
49.214546 21.022247 10.083013 156.87
9.0653048 3.8423929 -1.6176385 157.03
10.251706 4.3452578 -1.5648624 157.03
10.679269 4.5264831 -1.3564079 157.03
10.95857 4.6448669 -1.1104302 157.03
12.867716 5.4540715 -0.97728819 157.03
4.129849 1.7504655 -1.9970769 157.03
13.037807 5.5261655 -0.66036665 157.03
4.387207 1.8595484 -1.9903241 157.03
4.682723 1.984805 -1.986015 157.03
21.620096 9.1638298 0 157.03
4.9955711 2.1174078 -1.9748243 157.03
21.597704 9.1543379 0.54461807 157.03
5.3766093 2.2789135 -1.9732012 157.03
21.589268 9.1507626 1.0934993 157.03
5.7463374 2.4356256 -1.9475051 157.03
49.463097 20.965281 3.7566652 157.03
6.1421957 2.6034126 -1.9129232 157.03
49.440994 20.955912 5.0098476 157.03
6.2419882 2.6457105 -1.7747861 157.03
49.45129 20.960276 6.2809653 157.03
6.6511898 2.8191535 -1.7116719 157.03
7.3830338 3.1293507 -1.70446 157.03
49.434891 20.953325 8.8213015 157.03
8.1413021 3.4507477 -1.6659986 157.03
49.414207 20.944559 10.111897 157.03
9.0773306 3.8138945 -1.6176385 157.21001
10.259829 4.3107281 -1.5640273 157.21001
10.596374 4.4521294 -1.3440958 157.21001
12.840642 5.395072 -0.9739399 157.21001
4.1302748 1.7353594 -1.9946365 157.21001
4.39643 1.8471862 -1.9918658 157.21001
4.6889353 1.970084 -1.986015 157.21001
21.593462 9.0726213 0 157.21001
5.0073962 2.1038873 -1.9768764 157.21001
21.589489 9.0709515 0.54368967 157.21001
5.3819952 2.2612772 -1.9725609 157.21001
21.553444 9.0558071 1.0902386 157.21001
5.7451601 2.4138632 -1.9445263 157.21001
49.650116 20.86079 3.765873 157.21001
6.1467991 2.5826142 -1.9118207 157.21001
49.651619 20.861422 5.0245247 157.21001
6.2538366 2.6275866 -1.7757992 157.21001
49.654247 20.862528 6.2983875 157.21001
6.6528373 2.795229 -1.7098274 157.21001
7.3928285 3.1061406 -1.70446 157.21001
49.660587 20.865191 8.8498344 157.21001
8.1629744 3.4297221 -1.6682204 157.21001
49.631969 20.853167 10.143003 157.21001
9.0831423 3.7846675 -1.6166657 157.38
10.272573 4.2802677 -1.5640273 157.38
10.615038 4.4229617 -1.3447928 157.38
12.821602 5.3423696 -0.97128916 157.38
4.1354055 1.723097 -1.9946365 157.38
4.3984842 1.832714 -1.9903241 157.38
13.185357 5.4939351 -0.33163583 157.38
4.6964798 1.9568795 -1.9867425 157.38
21.559364 8.9831276 0 157.38
5.0084124 2.0868523 -1.9748243 157.38
21.540636 8.9753246 0.54178637 157.38
5.3764377 2.2401974 -1.9680792 157.38
21.497232 8.9572392 1.086046 157.38
5.7505345 2.3960719 -1.9439306 157.38
6.1437874 2.5599284 -1.9085131 157.38
49.86219 20.776051 5.0395732 157.38
6.259819 2.6082754 -1.7752926 157.38
49.858955 20.774702 6.3165073 157.38
6.6539159 2.7724833 -1.707983 157.38
7.4056234 3.0856969 -1.7052916 157.38
49.877125 20.782272 8.8773956 157.38
8.1658573 3.4024632 -1.6667391 157.38
49.833321 20.764021 10.171515 157.38
9.099803 3.7599616 -1.6176385 157.55
10.281568 4.2482567 -1.5634706 157.55
10.611591 4.3846197 -1.342702 157.55
10.781262 4.4547267 -1.0883219 157.55
12.802361 5.2898273 -0.96863842 157.55
4.1489429 1.7143081 -1.9987038 157.55
13.02649 5.3824358 -0.65729213 157.55
4.4090195 1.8217696 -1.9926367 157.55
13.149858 5.4334102 -0.33033603 157.55
4.7005434 1.9422247 -1.986015 157.55
25.225473 10.422953 0 157.55
5.0180559 2.0734181 -1.9761924 157.55
21.47847 8.8747225 0.53955811 157.55
5.3918166 2.2278531 -1.9712805 157.55
21.492325 8.8804464 1.0844622 157.55
5.7558541 2.3782701 -1.9433348 157.55
6.1513557 2.5416882 -1.9085131 157.55
50.057964 20.683527 5.0531354 157.55
6.2693186 2.5904295 -1.7757992 157.55
50.069084 20.688122 6.3353238 157.55
6.6513209 2.7482696 -1.7052163 157.55
7.4002819 3.057734 -1.7019651 157.55
50.079014 20.692225 8.9023619 157.55
8.1759167 3.3782196 -1.6667391 157.55
50.036392 20.674614 10.200399 157.55
9.1066151 3.7330384 -1.61699 157.71001
10.284228 4.2157726 -1.5620788 157.71001
10.47859 4.2954464 -1.3243502 157.71001
10.753124 4.4079852 -1.0842347 157.71001
12.778316 5.2381644 -0.96570861 157.71001
4.1469517 1.6999433 -1.99545 157.71001
13.008197 5.3323979 -0.65561515 157.71001
4.4123821 1.8087503 -1.9918658 157.71001
4.7042251 1.9283842 -1.9852875 157.71001
21.4627 8.7981195 0 157.71001
5.0238261 2.0593972 -1.9761924 157.71001
21.455069 8.7949905 0.53835118 157.71001
5.3962641 2.212069 -1.9706402 157.71001
21.437551 8.7878103 1.080456 157.71001
5.766006 2.363636 -1.9445263 157.71001
50.325005 20.62953 3.8032625 157.71001
6.1513138 2.5215836 -1.9063079 157.71001
50.279518 20.610882 5.0696702 157.71001
6.2729478 2.5714445 -1.7747861 157.71001
50.286568 20.613773 6.3555341 157.71001
6.6697736 2.7341137 -1.707983 157.71001
7.4377537 3.0489287 -1.7086183 157.71001
50.289989 20.615175 8.9295979 157.71001
8.1780443 3.3523932 -1.6652579 157.71001
50.284882 20.613081 10.239281 157.71001
9.1098013 3.6991069 -1.6153688 157.89999
10.298152 4.1816459 -1.5620788 157.89999
10.481733 4.2561903 -1.3229564 157.89999
10.688346 4.3400869 -1.0762459 157.89999
12.756798 5.1799984 -0.96277887 157.89999
4.1542587 1.6868696 -1.9962634 157.89999
12.999893 5.2787094 -0.65431082 157.89999
4.4217758 1.7954969 -1.9934075 157.89999
4.714046 1.9141756 -1.9867425 157.89999
21.450991 8.7103443 0 157.89999
5.0288868 2.0420191 -1.9755083 157.89999
21.448917 8.7095022 0.53746915 157.89999
5.4035697 2.1941621 -1.9706402 157.89999
21.409193 8.6933718 1.0775678 157.89999
5.7702746 2.3430655 -1.9433348 157.89999
50.520687 20.514324 3.8128889 157.89999
6.1596417 2.5011711 -1.9063079 157.89999
50.497036 20.504721 5.0847187 157.89999
6.2868185 2.5528121 -1.7763057 157.89999
50.503731 20.507439 6.3743505 157.89999
6.6842132 2.7141774 -1.7093663 157.89999
7.4423857 3.0220394 -1.7073708 157.89999
50.511673 20.510664 8.9568338 157.89999
8.1945791 3.3274736 -1.6663688 157.89999
50.511387 20.510548 10.271498 157.89999
9.1243982 3.6735353 -1.6160173 158.07001
10.310513 4.151072 -1.5620788 158.07001
10.462989 4.2124596 -1.3190073 158.07001
12.736946 5.1279678 -0.96012813 158.07001
4.1626353 1.6759011 -1.9978904 158.07001
12.972873 5.2229533 -0.65216798 158.07001
4.4270835 1.7823694 -1.9934075 158.07001
4.7127919 1.8973972 -1.9838326 158.07001
21.411806 8.6205168 0 158.07001
5.0331798 2.0263872 -1.9748243 158.07001
21.389343 8.6114731 0.53533375 158.07001
5.4100561 2.1781199 -1.9706402 158.07001
21.351496 8.5962353 1.0733753 158.07001
5.7683458 2.3223693 -1.9403561 158.07001
50.725693 20.422457 3.8237708 158.07001
6.1581187 2.4792941 -1.9035516 158.07001
50.722061 20.420994 5.1012535 158.07001
6.2871857 2.5312572 -1.7742797 158.07001
50.711777 20.416853 6.3929343 158.07001
6.6777945 2.6885185 -1.7056774 158.07001
7.4458752 2.9977524 -1.7061234 158.07001
50.735245 20.426302 8.985692 158.07001
8.2007694 3.3016772 -1.6656282 158.07001
50.73064 20.424448 10.303714 158.07001
9.1334248 3.645715 -1.6156931 158.24001
10.326464 4.1219306 -1.5626355 158.24001
10.517875 4.1983347 -1.3243502 158.24001
10.745353 4.289135 -1.0794042 158.24001
12.716899 5.0761013 -0.95747733 158.24001
4.162499 1.6615108 -1.99545 158.24001
12.94007 5.1651826 -0.64974564 158.24001
4.4323525 1.7692262 -1.9934075 158.24001
4.7253218 1.8861684 -1.9867425 158.24001
21.375992 8.5324812 0 158.24001
5.0409155 2.0121412 -1.9755083 158.24001
21.360949 8.5264759 0.53398752 158.24001
5.4129753 2.1606534 -1.9693598 158.24001
21.336086 8.516552 1.0713257 158.24001
5.7805305 2.3073676 -1.9421433 158.24001
50.902802 20.318457 3.8325601 158.24001
6.1636624 2.460299 -1.9030004 158.24001
50.926685 20.327991 5.1157446 158.24001
6.3036532 2.5161779 -1.7768122 158.24001
50.923412 20.326685 6.411983 158.24001
6.6893568 2.6701362 -1.7065996 158.24001
7.4456525 2.9720206 -1.7040442 158.24001
50.93676 20.332014 9.0106583 158.24001
8.1995773 3.2729588 -1.6634064 158.24001
50.968079 20.344513 10.339634 158.24001
9.1485033 3.6184554 -1.6163416 158.42
10.331995 4.086555 -1.5615222 158.42
10.514387 4.1586952 -1.3222595 158.42
10.747663 4.2509618 -1.0782896 158.42
12.697533 5.0221825 -0.95482659 158.42
4.1676979 1.6484258 -1.99545 158.42
12.880064 5.094378 -0.64592582 158.42
4.4344568 1.7539352 -1.9918658 158.42
4.7277594 1.8699436 -1.9852875 158.42
21.324579 8.4343891 0 158.42
5.0507073 1.9976773 -1.9768764 158.42
21.32999 8.4365292 0.53254849 158.42
5.4232607 2.1450312 -1.9706402 158.42
21.305145 8.4267025 1.0684375 158.42
5.7770987 2.2849827 -1.9385688 158.42
51.079556 20.203203 3.8410704 158.42
6.1731491 2.4416304 -1.9035516 158.42
51.149548 20.230888 5.131722 158.42
6.333117 2.5049016 -1.7828902 158.42
51.140339 20.227245 6.4312639 158.42
6.6253242 2.6204765 -1.6881549 158.42
7.4531336 2.9478953 -1.7036284 158.42
51.152706 20.232138 9.03757 158.42
8.2134752 3.2486289 -1.664147 158.42
9.1591997 3.5912952 -1.6163416 158.59
10.327479 4.0493746 -1.5590171 158.59
10.404621 4.0796213 -1.3069277 158.59
10.608207 4.1594467 -1.0630553 158.59
12.673371 4.9691916 -0.95189685 158.59
4.1674676 1.6340519 -1.9930096 158.59
12.876523 5.0488467 -0.64499414 158.59
4.439641 1.7407702 -1.9918658 158.59
4.7367558 1.857268 -1.9867425 158.59
21.302961 8.352829 0 158.59
5.0548625 1.9819968 -1.9761924 158.59
21.274885 8.3418198 0.53055233 158.59
5.4260731 2.1275473 -1.9693598 158.59
21.270535 8.3401146 1.0654562 158.59
5.7802978 2.2664378 -1.9373773 158.59
51.36031 20.138227 3.8576725 158.59
6.1749969 2.4211981 -1.9018978 158.59
51.350246 20.134281 5.1458416 158.59
6.3387198 2.4853935 -1.7823837 158.59
51.37952 20.14576 6.4537973 158.59
6.6095166 2.591572 -1.6821604 158.59
7.4563832 2.9236262 -1.7023809 158.59
