# .PCD v0.7 - Point Cloud Data file format
VERSION 0.7
FIELDS x y z intensity
SIZE 4 4 4 4
TYPE F F F F
COUNT 1 1 1 1
WIDTH 1181
HEIGHT 1
VIEWPOINT 0 0 0 1 0 0 0
POINTS 1181
DATA ascii
-4.5071859 2.7317996 -2.0580354 31.219999
-4.8489799 2.9389606 -2.0637496 31.219999
-5.2678032 3.1928086 -2.0814006 31.219999
-5.7373943 3.4774272 -2.0934637 31.219999
-6.3068061 3.8225472 -2.1146898 31.219999
-6.9857621 4.2340612 -2.1384552 31.219999
-7.8404541 4.752089 -2.1723294 31.219999
-8.8233557 5.3478246 -2.1930525 31.219999
-10.125105 6.1368132 -2.2307124 31.219999
-11.153887 6.8030186 -2.1464756 31.379999
-12.742232 7.7717881 -2.0976169 31.379999
-14.566157 8.884243 -1.9952366 31.379999
-21.344536 13.018536 -2.3325164 31.379999
-3.9510927 2.4098647 -2.0605278 31.379999
-26.677471 16.271219 -1.4572227 31.379999
-4.200407 2.5619273 -2.0550752 31.379999
-4.4963589 2.7424352 -2.0565803 31.379999
-4.8423581 2.9534686 -2.0644336 31.379999
-5.2572489 3.2065201 -2.0807605 31.379999
-5.7178812 3.4874706 -2.0898893 31.379999
-6.3010311 3.8431475 -2.1163437 31.379999
-6.9755626 4.2545605 -2.1389618 31.379999
-7.8238301 4.7719383 -2.1714072 31.379999
-8.805047 5.3704057 -2.1922209 31.379999
-10.101216 6.1609702 -2.2292311 31.379999
-11.153834 6.8484745 -2.1503665 31.549999
-12.717429 7.8085246 -2.0973387 31.549999
-14.546505 8.9315796 -1.9961659 31.549999
-21.234541 13.038047 -2.3247135 31.549999
-3.945482 2.422533 -2.0613413 31.549999
-26.554165 16.304306 -1.4531235 31.549999
-4.1912146 2.5734131 -2.0543044 31.549999
-47.234051 29.001791 -1.2868528 31.549999
-4.4897895 2.7567389 -2.057308 31.549999
-4.8367772 2.9697897 -2.0658016 31.549999
-5.2477117 3.2221045 -2.0807605 31.549999
-5.7075086 3.5044205 -2.0898893 31.549999
-6.2863235 3.8598142 -2.1152411 31.549999
-6.957962 4.2722011 -2.1374424 31.549999
-7.7996864 4.7890215 -2.1686404 31.549999
-8.7857389 5.3944597 -2.1913893 31.549999
-10.079542 6.1888571 -2.2284906 31.549999
-11.153134 6.8910055 -2.153933 31.709999
-12.685465 7.8377619 -2.0956686 31.709999
-14.560374 8.9961815 -2.0015087 31.709999
-21.079464 13.024025 -2.3117087 31.709999
-3.9324844 2.4297001 -2.0580873 31.709999
-4.1871519 2.5870473 -2.055846 31.709999
-47.200504 29.163008 -1.2881527 31.709999
-4.4789042 2.7673075 -2.0558529 31.709999
-4.828465 2.983285 -2.0658016 31.709999
-5.2338576 3.2337584 -2.0788398 31.709999
-5.7025728 3.523356 -2.0916765 31.709999
-6.2738853 3.8763433 -2.1146898 31.709999
-6.9443588 4.2905979 -2.1369357 31.709999
-7.7945604 4.8158984 -2.1709459 31.709999
-8.7623196 5.4138317 -2.1893101 31.709999
-10.055532 6.2128482 -2.2270093 31.709999
-11.141484 6.9322658 -2.1558785 31.889999
-12.659098 7.8765292 -2.0953903 31.889999
-14.432528 8.9799633 -1.9878031 31.889999
-21.104383 13.131212 -2.3189542 31.889999
-26.016317 16.187431 -2.1426399 31.889999
-3.9248319 2.4420424 -2.0580873 31.889999
-4.1727357 2.5962889 -2.0527627 31.889999
-4.4717698 2.7823489 -2.0565803 31.889999
-4.8174729 2.9974465 -2.0651176 31.889999
-5.222064 3.2491841 -2.0781994 31.889999
-5.6833706 3.5362105 -2.0886977 31.889999
-6.2616763 3.896034 -2.1146898 31.889999
-6.9209886 4.3062601 -2.1338968 31.889999
-7.7727828 4.8362494 -2.1691015 31.889999
-8.7419462 5.4392657 -2.1884785 31.889999
-10.029289 6.2402544 -2.2255282 31.889999
-11.142611 6.9789109 -2.1600938 32.060001
-12.635673 7.9140549 -2.0953903 32.060001
-14.392353 9.0143108 -1.9859446 32.060001
-20.996136 13.150434 -2.3113372 32.060001
-25.839668 16.184067 -2.1320369 32.060001
-3.9222143 2.4565864 -2.0605278 32.060001
-4.1634502 2.6076787 -2.0519917 32.060001
-4.4650741 2.7965937 -2.057308 32.060001
-4.7990017 3.0057414 -2.0610135 32.060001
-5.2156119 3.2666755 -2.0794799 32.060001
-5.6728535 3.5530579 -2.0886977 32.060001
-6.2435718 3.9105136 -2.1124847 32.060001
-6.9081812 4.326776 -2.1338968 32.060001
-7.7435555 4.8499932 -2.1649516 32.060001
-8.725769 5.4651794 -2.1884785 32.060001
-10.007399 6.2678981 -2.2247875 32.060001
-11.142331 7.0275688 -2.1643088 32.240002
-12.605721 7.9505424 -2.0945551 32.240002
-14.397567 9.0806751 -1.9905907 32.240002
-20.958088 13.218455 -2.3117087 32.240002
-25.668884 16.189596 -2.1221313 32.240002
-3.9082959 2.4649973 -2.0572739 32.240002
-4.1567984 2.6217303 -2.0527627 32.240002
-4.4562659 2.8106072 -2.057308 32.240002
-4.7879457 3.0198004 -2.0603294 32.240002
-5.2005157 3.2800124 -2.0775592 32.240002
-5.6616631 3.5708621 -2.0886977 32.240002
-6.2328815 3.9311347 -2.1130359 32.240002
-6.8961906 4.3494897 -2.1344032 32.240002
-7.7348647 4.878449 -2.166796 32.240002
-8.7002831 5.4873471 -2.1863995 32.240002
-9.9826708 6.2961607 -2.2236767 32.240002
-11.139758 7.0722332 -2.1678755 32.41
-12.587092 7.9910936 -2.0953903 32.41
-14.494661 9.2021408 -2.007781 32.41
-20.8095 13.211205 -2.2996328 32.41
-25.511251 16.19618 -2.1130631 32.41
-3.9025073 2.477562 -2.0580873 32.41
-4.1521173 2.6360304 -2.0543044 32.41
-4.4463344 2.8228183 -2.0565803 32.41
-4.7821379 3.0360079 -2.0616975 32.41
-5.1891613 3.2944126 -2.0769191 32.41
-5.6462078 3.5845749 -2.0869105 32.41
-6.2146983 3.9454892 -2.1108308 32.41
-6.8750882 4.364747 -2.1318707 32.41
-7.7022834 4.8899035 -2.1617236 32.41
-8.6806612 5.5110402 -2.1855676 32.41
-9.9622869 6.3246989 -2.2233064 32.41
-11.14866 7.124383 -2.1737118 32.580002
-12.546638 8.0177402 -2.0926068 32.580002
-14.314972 9.1477671 -1.9866415 32.580002
-20.681276 13.216059 -2.2897861 32.580002
-25.340359 16.193375 -2.1028786 32.580002
-3.8982182 2.4910977 -2.0597143 32.580002
-4.1427226 2.6473446 -2.0535336 32.580002
-4.4410791 2.8380048 -2.0580354 32.580002
-4.7746925 3.0511954 -2.0623815 32.580002
-5.1777673 3.3087742 -2.0762787 32.580002
-5.6355472 3.6013117 -2.0869105 32.580002
-6.2029643 3.9639111 -2.1108308 32.580002
-6.8637376 4.3861685 -2.1323771 32.580002
-7.6910205 4.9148312 -2.1626458 32.580002
-8.6576777 5.5325584 -2.1839044 32.580002
-9.9418211 6.3531713 -2.2229362 32.580002
-11.150301 7.1693635 -2.177927 32.740002
-12.527532 8.0548878 -2.0931635 32.740002
-14.428054 9.2768764 -2.0059226 32.740002
-20.525364 13.197294 -2.2765956 32.740002
-25.197706 16.201492 -2.0947869 32.740002
-3.8912466 2.5019739 -2.0597143 32.740002
-4.1337614 2.6579049 -2.0527627 32.740002
-4.4315696 2.8493879 -2.057308 32.740002
-4.7582493 3.0594349 -2.0589612 32.740002
-5.1653199 3.321171 -2.0749984 32.740002
-5.6254687 3.6170352 -2.0869105 32.740002
-6.1854024 3.9770584 -2.1086259 32.740002
-6.8514624 4.4053183 -2.1323771 32.740002
-7.6658072 4.9289217 -2.1594181 32.740002
-8.6421938 5.5567136 -2.1839044 32.740002
-9.9124689 6.3734684 -2.2203438 32.740002
-11.147603 7.2172284 -2.181818 32.919998
-12.498839 8.0920525 -2.0926068 32.919998
-14.258769 9.231473 -1.9864092 32.919998
-20.488817 13.264958 -2.2771528 32.919998
-25.034473 16.207926 -2.0854394 32.919998
-3.8802998 2.5122004 -2.0580873 32.919998
-24.999603 16.18535 -1.3888383 32.919998
-4.1191945 2.6668665 -2.0496793 32.919998
-47.250546 30.59115 -1.3068606 32.919998
-4.4194684 2.8612711 -2.0558529 32.919998
-4.7454591 3.0723255 -2.0575931 32.919998
-5.1564512 3.3384116 -2.0756385 32.919998
-5.6140776 3.6346903 -2.0869105 32.919998
-6.1728778 3.9964709 -2.1086259 32.919998
-6.8310924 4.4226151 -2.1303513 32.919998
-7.6502848 4.95298 -2.1594181 32.919998
-8.6197672 5.580647 -2.182657 32.919998
-9.8874474 6.4013734 -2.219233 32.919998
-11.134407 7.2556596 -2.183439 33.09
-12.473116 8.1280203 -2.0923283 33.09
-14.30288 9.3203735 -1.9963982 33.09
-20.205786 13.166962 -2.2500284 33.09
-24.872608 16.208065 -2.0759528 33.09
-3.8697672 2.5217073 -2.0564604 33.09
-24.882845 16.214735 -1.3850185 33.09
-4.114356 2.6810918 -2.0512209 33.09
-47.290237 30.816357 -1.3104814 33.09
-4.4109592 2.8743713 -2.0558529 33.09
-4.7363224 3.0863919 -2.0575931 33.09
-5.1417608 3.3505931 -2.0737178 33.09
-5.6048684 3.6523738 -2.0875063 33.09
-6.1626034 4.0158181 -2.1091771 33.09
-6.816319 4.4418077 -2.1298447 33.09
-7.6371861 4.9767199 -2.1598792 33.09
-8.6015329 5.6051297 -2.1822412 33.09
-9.8651171 6.4285359 -2.2184925 33.09
-11.131358 7.3035955 -2.18733 33.27
-12.442552 8.1639061 -2.0914934 33.27
-14.079206 9.2377615 -1.969219 33.27
-19.999491 13.122225 -2.2316358 33.27
-24.703131 16.208414 -2.0660472 33.27
-3.8648813 2.5358567 -2.0580873 33.27
-4.1105418 2.6970413 -2.0535336 33.27
-4.3987923 2.8861706 -2.0543981 33.27
-4.7234602 3.0991943 -2.0562251 33.27
-5.1327934 3.3677692 -2.074358 33.27
-5.5885773 3.666822 -2.0857189 33.27
-6.1467423 4.0330496 -2.1080744 33.27
-6.7974782 4.4600153 -2.1283252 33.27
-7.6198864 4.9996204 -2.1594181 33.27
-8.5773382 5.6278315 -2.1805778 33.27
-9.8366566 6.4541054 -2.2166409 33.27
-11.134342 7.3529038 -2.1921935 33.439999
-12.419927 8.2018785 -2.0917716 33.439999
-14.290435 9.4371262 -2.0026703 33.439999
-19.943851 13.170533 -2.2297781 33.439999
-24.573353 16.227766 -2.059211 33.439999
-3.8619142 2.5503333 -2.0605278 33.439999
-24.744987 16.34111 -1.3828756 33.439999
-4.0994415 2.7071917 -2.0519917 33.439999
-4.3902092 2.8992093 -2.0543981 33.439999
-4.7142439 3.1131954 -2.0562251 33.439999
-5.1196165 3.3808954 -2.0730777 33.439999
-5.5713005 3.679179 -2.0833359 33.439999
-6.1315403 4.0491505 -2.106972 33.439999
-6.7793717 4.4769659 -2.1268058 33.439999
-7.6001468 5.0189896 -2.1580346 33.439999
-8.5573378 5.6511002 -2.1797462 33.439999
-9.8125429 6.4800138 -2.2155299 33.439999
-11.144056 7.4097013 -2.1986785 33.619999
-12.400695 8.2452431 -2.092885 33.619999
-14.379818 9.5611649 -2.0193961 33.619999
-20.161064 13.405125 -2.2587602 33.619999
-24.525574 16.307095 -2.0594902 33.619999
-3.8493185 2.5594184 -2.0580873 33.619999
-4.0939898 2.7221007 -2.0535336 33.619999
-4.3810797 2.9129872 -2.0543981 33.619999
-4.7075706 3.1300714 -2.0575931 33.619999
-5.1105475 3.3980117 -2.0737178 33.619999
-5.5613046 3.6977205 -2.0839317 33.619999
-6.1123853 4.0641356 -2.1047668 33.619999
-6.7636623 4.4971704 -2.1262991 33.619999
-7.5794797 5.039609 -2.1566513 33.619999
-8.5313969 5.6725402 -2.1776671 33.619999
-9.7888641 6.5086322 -2.2147894 33.619999
-11.141704 7.455905 -2.2025692 33.790001
-12.379469 8.2842035 -2.0934417 33.790001
-20.270149 13.564559 -2.2754807 33.790001
-24.29303 16.256626 -2.0440042 33.790001
-3.8417077 2.5708282 -2.0580873 33.790001
-4.0782266 2.729104 -2.0496793 33.790001
-4.3786106 2.9301176 -2.057308 33.790001
-4.6967006 3.1429801 -2.0569091 33.790001
-5.0941439 3.4089448 -2.071157 33.790001
-5.5392017 3.7067723 -2.0797615 33.790001
-6.1002998 4.0822535 -2.1047668 33.790001
-6.7454653 4.5139904 -2.1247797 33.790001
-7.5580239 5.0577459 -2.1548069 33.790001
-8.5096512 5.6945643 -2.1764195 33.790001
-9.766243 6.5354614 -2.2140489 33.790001
-11.142449 7.5043645 -2.2071087 33.959999
-12.353191 8.3197908 -2.0931635 33.959999
-14.311295 9.6385603 -2.0177698 33.959999
-20.11915 13.550112 -2.2630334 33.959999
-24.133816 16.253962 -2.0346568 33.959999
-3.831032 2.5801742 -2.0564604 33.959999
-4.0731726 2.7432542 -2.0512209 33.959999
-4.3590808 2.9358115 -2.0522156 33.959999
-4.6826782 3.1537521 -2.054857 33.959999
-5.0887218 3.4272199 -2.0730777 33.959999
-5.5376801 3.7295902 -2.0833359 33.959999
-6.088161 4.1003351 -2.1047668 33.959999
-6.7320423 4.5339851 -2.1247797 33.959999
-7.5413699 5.079062 -2.1543458 33.959999
-8.4927177 5.7197876 -2.1764195 33.959999
-9.7402878 6.5600181 -2.2125676 33.959999
-11.134203 7.5412564 -2.2093785 34.110001
-12.329728 8.3509922 -2.092885 34.110001
-14.300815 9.6860199 -2.0198607 34.110001
-20.119881 13.627305 -2.2671206 34.110001
-3.8212385 2.5881457 -2.0548334 34.110001
-4.0720887 2.7580478 -2.0543044 34.110001
-4.3560076 2.9503477 -2.0543981 34.110001
-4.6744056 3.1660004 -2.054857 34.110001
-5.0765944 3.438405 -2.0717971 34.110001
-5.5215745 3.7397926 -2.0809529 34.110001
-6.0758138 4.1151819 -2.1042156 34.110001
-6.7153435 4.5483389 -2.1232603 34.110001
-7.5248246 5.0966048 -2.1534235 34.110001
-8.4777136 5.742002 -2.1764195 34.110001
-9.7149439 6.5799847 -2.210716 34.110001
-11.130023 7.589541 -2.2132692 34.290001
-12.300159 8.387455 -2.0923283 34.290001
-14.312985 9.7599964 -2.0259004 34.290001
-19.951931 13.605182 -2.253001 34.290001
-23.772764 16.210602 -2.0120556 34.290001
-3.8145983 2.6011672 -2.0556469 34.290001
-4.0634041 2.7708271 -2.0543044 34.290001
-4.3482566 2.9650676 -2.0551255 34.290001
-4.6706471 3.1849051 -2.0575931 34.290001
-5.0626364 3.4522018 -2.0705166 34.290001
-5.5034885 3.7528181 -2.0785699 34.290001
-6.0612669 4.1331663 -2.1036644 34.290001
-6.6962256 4.566143 -2.1217406 34.290001
-7.5071683 5.119123 -2.1529624 34.290001
-8.4580164 5.7675052 -2.1760037 34.290001
-9.689353 6.6071506 -2.2096052 34.290001
-11.136745 7.6426311 -2.2191057 34.459999
-12.278485 8.4261541 -2.092885 34.459999
-14.280688 9.8001728 -2.0254359 34.459999
-19.94924 13.690236 -2.2572739 34.459999
-23.719627 16.277679 -2.0116372 34.459999
-3.8038509 2.6104062 -2.0540202 34.459999
-4.0551648 2.7828712 -2.0543044 34.459999
-4.3363676 2.9758477 -2.0536704 34.459999
-4.6627264 3.1998127 -2.0582771 34.459999
-5.0508089 3.4661355 -2.0698764 34.459999
-5.4970522 3.7723715 -2.0803573 34.459999
-6.0458069 4.1489563 -2.1025617 34.459999
-6.6794577 4.5838017 -2.1207275 34.459999
-7.4871325 5.1380715 -2.1515791 34.459999
-8.4311895 5.7859335 -2.1735089 34.459999
-9.6632242 6.631422 -2.2081239 34.459999
-11.128918 7.6887984 -2.222348 34.639999
-12.245436 8.4601831 -2.0917716 34.639999
-14.266173 9.8562803 -2.0277588 34.639999
-19.789808 13.672475 -2.2440834 34.639999
-23.647034 16.337374 -2.0098236 34.639999
-3.7986376 2.6244204 -2.0556469 34.639999
-4.0418472 2.7924502 -2.0519917 34.639999
-4.3285303 2.990515 -2.0543981 34.639999
-4.6511049 3.213377 -2.0575931 34.639999
-5.0383358 3.4809091 -2.0692363 34.639999
-5.4788909 3.7852814 -2.0779743 34.639999
-6.0311608 4.1668367 -2.1020105 34.639999
-6.666616 4.6058626 -2.1212342 34.639999
-7.4661503 5.1582489 -2.1501956 34.639999
-8.4065323 5.8079443 -2.1718454 34.639999
-9.6358757 6.6572785 -2.2066426 34.639999
-11.131982 7.7398105 -2.227536 34.810001
-12.223532 8.4987402 -2.0923283 34.810001
-14.272748 9.9235134 -2.0328696 34.810001
-14.311147 9.9502106 -1.6261662 34.810001
-23.564056 16.383545 -2.0068936 34.810001
-3.7953346 2.6388087 -2.0580873 34.810001
-4.0335441 2.8044302 -2.0519917 34.810001
-4.3196383 3.0033448 -2.0543981 34.810001
-4.6415501 3.2271628 -2.0575931 34.810001
-5.0279856 3.4958427 -2.0692363 34.810001
-5.4676356 3.8015211 -2.0779743 34.810001
-6.0219278 4.1869078 -2.1031129 34.810001
-6.6481552 4.6223092 -2.1197147 34.810001
-7.4428234 5.1748238 -2.1478901 34.810001
-8.3876562 5.8317447 -2.1714296 34.810001
-9.6144667 6.6847172 -2.2062724 34.810001
-11.138075 7.7931709 -2.2333722 34.98
-12.20313 8.5383768 -2.0931635 34.98
-14.165116 9.9111538 -2.021719 34.98
-19.718115 13.796518 -2.245198 34.98
-23.500629 16.443094 -2.0056381 34.98
-3.7844944 2.6479633 -2.0564604 34.98
-4.022181 2.8142695 -2.0504501 34.98
-4.3061285 3.0129442 -2.0522156 34.98
-4.6273346 3.2376881 -2.055541 34.98
-5.0144863 3.5085733 -2.0679557 34.98
-5.4563322 3.8177271 -2.0779743 34.98
-6.0063281 4.2025528 -2.1020105 34.98
-6.6312408 4.6397958 -2.1187017 34.98
-7.4417877 5.2069254 -2.1520402 34.98
-8.3590965 5.8487549 -2.168519 34.98
-9.5768766 6.7008204 -2.202199 34.98
-11.132653 7.8386822 -2.236939 35.150002
-12.172884 8.571126 -2.0923283 35.150002
-14.103162 9.9302664 -2.0170729 35.150002
-19.66081 13.843497 -2.2433403 35.150002
-23.440319 16.504709 -2.0046616 35.150002
-3.7796087 2.6612842 -2.0580873 35.150002
-4.0153222 2.8272538 -2.0512209 35.150002
-4.2926002 3.0224898 -2.0500331 35.150002
-4.6161714 3.2503214 -2.054857 35.150002
-5.0025048 3.5223451 -2.0673156 35.150002
-5.4449806 3.8338995 -2.0779743 35.150002
-5.987545 4.2159281 -2.0998054 35.150002
-6.6142812 4.6572227 -2.1176887 35.150002
-7.4072108 5.215538 -2.1465068 35.150002
-8.3369074 5.870152 -2.1672714 35.150002
-9.5537386 6.726943 -2.2014585 35.150002
-11.122229 7.8808069 -2.2395327 35.32
-12.144168 8.6049156 -2.0917716 35.32
-14.251927 10.098398 -2.0426261 35.32
-14.056281 9.9597702 -1.6072162 35.32
-23.404268 16.583414 -2.0057776 35.32
-3.7672236 2.6693177 -2.0556469 35.32
-4.0039043 2.8370211 -2.0496793 35.32
-4.2896938 3.039521 -2.052943 35.32
-4.6049738 3.262917 -2.054173 35.32
-5.001308 3.543745 -2.071157 35.32
-5.4242344 3.8434155 -2.0743997 35.32
-5.9750094 4.2336745 -2.0998054 35.32
-6.6004338 4.6768274 -2.1176887 35.32
-7.3917036 5.2374926 -2.1465068 35.32
-8.3274345 5.9005175 -2.1693506 35.32
-9.5417557 6.760941 -2.20331 35.32
-11.1229 7.9309592 -2.2443964 35.490002
-12.120195 8.6420603 -2.0920501 35.490002
-14.299538 10.195996 -2.0537767 35.490002
-19.609123 13.981889 -2.24687 35.490002
-23.369581 16.663208 -2.0070333 35.490002
-3.7622623 2.682605 -2.0572739 35.490002
-3.9954691 2.8488884 -2.0496793 35.490002
-4.2761059 3.0489907 -2.0507605 35.490002
-4.5922117 3.2743835 -2.0528049 35.490002
-4.9784293 3.5497684 -2.066035 35.490002
-5.4174705 3.8628178 -2.0761869 35.490002
-5.9561605 4.2469196 -2.0976002 35.490002
-6.5865283 4.6963906 -2.1176887 35.490002
-7.3682084 5.2537518 -2.144201 35.490002
-8.300334 5.918385 -2.1668556 35.490002
-9.5152521 6.784658 -2.2018287 35.490002
-11.117169 7.9796729 -2.2482872 35.669998
-12.092986 8.6800947 -2.0920501 35.669998
-14.251298 10.229286 -2.0514536 35.669998
-19.565102 14.043424 -2.24687 35.669998
-23.344671 16.756321 -2.0094049 35.669998
-3.747879 2.6901498 -2.0540202 35.669998
-3.9894979 2.8635788 -2.0512209 35.669998
-4.2680197 3.0634959 -2.0514879 35.669998
-4.5834289 3.2898903 -2.053489 35.669998
-4.9657135 3.5642862 -2.0653949 35.669998
-5.3991041 3.875365 -2.0738039 35.669998
-5.9427891 4.2656107 -2.0976002 35.669998
-6.5670261 4.713675 -2.1161692 35.669998
-7.3516669 5.2768736 -2.144201 35.669998
-8.2737532 5.9387283 -2.1647766 35.669998
-9.4843111 6.8076415 -2.1996069 35.669998
-11.109443 8.0241785 -2.2515297 35.84
-12.068784 8.7170963 -2.0923283 35.84
-14.236988 10.283156 -2.0537767 35.84
-19.326403 13.959162 -2.2242045 35.84
-23.346607 16.862894 -2.0138693 35.84
-3.7369182 2.6991184 -2.0523932 35.84
-24.667372 17.816862 -1.4190243 35.84
-3.9794879 2.8743227 -2.0504501 35.84
-4.263442 3.0794182 -2.0536704 35.84
-4.572124 3.3023746 -2.0528049 35.84
-4.9551163 3.579004 -2.0653949 35.84
-5.3844867 3.8891315 -2.0726125 35.84
-5.9301066 4.2832241 -2.0976002 35.84
-6.5498748 4.7308731 -2.1151562 35.84
-7.3454432 5.3055005 -2.1469679 35.84
-8.2545109 5.9621053 -2.1643608 35.84
-9.4545107 6.8288469 -2.1973851 35.84
-11.082582 8.0578794 -2.2512054 36.02
-12.044542 8.7572975 -2.092885 36.02
-14.101785 10.253069 -2.0389094 36.02
-19.317886 14.045572 -2.2282917 36.02
-3.7343314 2.7151427 -2.0556469 36.02
-47.23019 34.339935 -2.7231739 36.02
-3.9749162 2.8900661 -2.0527627 36.02
-4.2552533 3.0938926 -2.0543981 36.02
-4.5586867 3.3145115 -2.0514369 36.02
-4.9423156 3.5934391 -2.0647545 36.02
-5.372242 3.9060283 -2.0726125 36.02
-5.9104013 4.2973108 -2.0953951 36.02
-6.5349798 4.7514267 -2.1151562 36.02
-7.3129992 5.3171062 -2.1423566 36.02
-8.2309923 5.9845572 -2.1631131 36.02
-9.4282417 6.8550482 -2.196274 36.02
-11.05544 8.0883961 -2.2505569 36.189999
-12.018506 8.7929964 -2.092885 36.189999
-13.963887 10.216278 -2.0233452 36.189999
-19.340414 14.14986 -2.235723 36.189999
-3.7247844 2.725132 -2.0548334 36.189999
-3.9633448 2.8996677 -2.0512209 36.189999
-4.2430477 3.1043046 -2.052943 36.189999
-4.5488324 3.328023 -2.0514369 36.189999
-4.9301028 3.6069686 -2.0641143 36.189999
-5.3560066 3.9185688 -2.0708253 36.189999
-5.8929701 4.3114228 -2.0937414 36.189999
-6.5177302 4.7685108 -2.1141431 36.189999
-7.29562 5.3376317 -2.1418955 36.189999
-8.2053051 6.0031767 -2.1610341 36.189999
-9.4078608 6.8829918 -2.196274 36.189999
-11.018504 8.1087093 -2.2476389 36.349998
-11.9955 8.8276978 -2.0931635 36.349998
-14.218489 10.463634 -2.0644624 36.349998
-19.284786 14.192011 -2.2338653 36.349998
-23.327351 17.167004 -2.0253096 36.349998
-3.7127452 2.7322741 -2.0523932 36.349998
-47.047714 34.623234 -2.7241056 36.349998
-3.9567184 2.911818 -2.0519917 36.349998
-4.2343626 3.1161411 -2.052943 36.349998
-4.5380073 3.3395987 -2.0507529 36.349998
-4.9184852 3.6195989 -2.0634742 36.349998
-5.3481183 3.9357736 -2.0720167 36.349998
-5.8824558 4.3290019 -2.0942926 36.349998
-6.4997139 4.7832527 -2.1126237 36.349998
-7.2775512 5.3556771 -2.1409733 36.349998
-8.188509 6.0260668 -2.1610341 36.349998
-9.3759394 6.8999171 -2.1933117 36.349998
-10.988218 8.139761 -2.2466662 36.529999
-11.966116 8.8641605 -2.092885 36.529999
-14.097754 10.443217 -2.051686 36.529999
-17.230328 12.763739 -2.0005207 36.529999
-23.326208 17.279394 -2.0299134 36.529999
-3.7056115 2.745012 -2.0532067 36.529999
-3.9475513 2.9242342 -2.0519917 36.529999
-4.2245517 3.1294284 -2.052943 36.529999
-4.5214524 3.349364 -2.0480165 36.529999
-4.9131794 3.6395442 -2.066035 36.529999
-5.3295908 3.94801 -2.0696337 36.529999
-5.8672819 4.3463163 -2.0937414 36.529999
-6.476881 4.7978902 -2.110091 36.529999
-7.2591262 5.3773551 -2.1405122 36.529999
-8.16325 6.0471044 -2.1593709 36.529999
-9.340003 6.9188094 -2.1899791 36.529999
-10.97494 8.1774893 -2.2486115 36.689999
-11.944492 8.8999081 -2.0934417 36.689999
-14.16889 10.557319 -2.0663209 36.689999
-19.20981 14.313337 -2.2349799 36.689999
-23.335459 17.387381 -2.034936 36.689999
-3.6993966 2.7564409 -2.0540202 36.689999
-3.9393699 2.9352465 -2.0519917 36.689999
-4.2143025 3.1401002 -2.0522156 36.689999
-4.5030394 3.3552399 -2.0439124 36.689999
-4.8923612 3.6453257 -2.0615535 36.689999
-5.3231378 3.9662998 -2.0714209 36.689999
-5.8520389 4.3603864 -2.0926387 36.689999
-6.4619064 4.8148022 -2.1095846 36.689999
-7.2378392 5.3929543 -2.1386678 36.689999
-8.1416254 6.06637 -2.1581233 36.689999
-9.3237972 6.9472132 -2.1907196 36.689999
-10.939723 8.2048225 -2.2466662 36.869999
-11.91172 8.9338236 -2.0926068 36.869999
-14.202398 10.651838 -2.0760775 36.869999
-14.001578 10.501223 -1.6328545 36.869999
-3.6907187 2.7680492 -2.0540202 36.869999
-3.9197943 2.9398568 -2.0465958 36.869999
-4.1999454 3.149971 -2.0500331 36.869999
-4.4969869 3.3727529 -2.0459645 36.869999
-4.8778534 3.6584036 -2.0602729 36.869999
-5.3045416 3.9784212 -2.0690379 36.869999
-5.8336973 4.375289 -2.0909851 36.869999
-6.4498439 4.8374009 -2.1105976 36.869999
-7.2224183 5.4168339 -2.1391289 36.869999
-8.1193972 6.08957 -2.1572917 36.869999
-9.2909203 6.9682159 -2.1881275 36.869999
-10.926358 8.2455673 -2.2489357 37.040001
-11.88358 8.9679337 -2.0923283 37.040001
-14.158046 10.684358 -2.0742192 37.040001
-14.687236 11.083711 -1.716643 37.040001
-23.392843 17.653389 -2.0493057 37.040001
-3.6781142 2.775686 -2.0515797 37.040001
-3.919893 2.9581439 -2.0512209 37.040001
-4.1950421 3.1657853 -2.0522156 37.040001
-4.4824595 3.3826845 -2.0439124 37.040001
-4.8715143 3.6762846 -2.0621936 37.040001
-5.2942381 3.9952924 -2.0696337 37.040001
-5.8222241 4.3937368 -2.0915363 37.040001
-6.429285 4.8518548 -2.1085715 37.040001
-7.2001004 5.4335499 -2.1372843 37.040001
-8.0981703 6.1112771 -2.15646 37.040001
-9.2702036 6.9957519 -2.1881275 37.040001
-10.898829 8.2786589 -2.2486115 37.220001
-11.850616 9.0016289 -2.0914934 37.220001
-14.148138 10.746807 -2.0777037 37.220001
-14.921921 11.334566 -1.7482262 37.220001
-30.124441 22.882275 -2.6453049 37.220001
-3.6766508 2.7927532 -2.0556469 37.220001
-3.9076412 2.9682114 -2.0496793 37.220001
-4.1865597 3.1800756 -2.052943 37.220001
-4.4763002 3.4001603 -2.0459645 37.220001
-4.8554149 3.6881323 -2.0602729 37.220001
-5.2740588 4.0061312 -2.0666549 37.220001
-5.8068614 4.4108434 -2.0909851 37.220001
-6.4093885 4.8685179 -2.1070521 37.220001
-7.1767964 5.4514346 -2.1354399 37.220001
-8.0789309 6.1366882 -2.15646 37.220001
-9.2466154 7.0236516 -2.1877573 37.220001
-10.875785 8.3121586 -2.2489357 37.389999
-11.822283 9.0355482 -2.0912151 37.389999
-14.125659 10.795976 -2.0790975 37.389999
-18.862637 14.416359 -2.2149153 37.389999
-29.896315 22.849192 -2.6312141 37.389999
-3.6668966 2.8025403 -2.0548334 37.389999
-3.8988171 2.9797926 -2.0496793 37.389999
-4.1771054 3.1924834 -2.052943 37.389999
-4.4706717 3.4168503 -2.0480165 37.389999
-4.850472 3.7071247 -2.0628338 37.389999
-5.260632 4.0206022 -2.0660591 37.389999
-5.7922211 4.4268856 -2.0904336 37.389999
-6.3964524 4.8886886 -2.1075585 37.389999
-7.1636825 5.4750676 -2.1363621 37.389999
-8.0529156 6.1546922 -2.154381 37.389999
-9.2116804 7.0403147 -2.1844244 37.389999
-10.833865 8.3311567 -2.2453692 37.560001
-11.796991 9.0717936 -2.0914934 37.560001
-14.106163 10.847528 -2.080956 37.560001
-18.744009 14.413995 -2.2059977 37.560001
-29.929607 23.015633 -2.6401429 37.560001
-3.6571169 2.812294 -2.0540202 37.560001
-3.8943474 2.9947226 -2.0519917 37.560001
-4.1646614 3.2025917 -2.0514879 37.560001
-4.4590244 3.4289544 -2.0473325 37.560001
-4.8319416 3.7157247 -2.0596328 37.560001
-5.2471662 4.0350294 -2.0654635 37.560001
-5.7744889 4.440536 -2.0887799 37.560001
-6.3819194 4.9076457 -2.1075585 37.560001
-7.1412354 5.4915533 -2.1345177 37.560001
-8.0299664 6.1749811 -2.1531334 37.560001
-9.1876354 7.0652189 -2.1836839 37.560001
-10.796612 8.3536034 -2.2427752 37.73
-11.770023 9.1067553 -2.0914934 37.73
-14.089626 10.901489 -2.0832789 37.73
-18.746832 14.504885 -2.2113855 37.73
-29.711283 22.988348 -2.6268892 37.73
-3.6473114 2.8220143 -2.0532067 37.73
-45.723042 35.377041 -2.6959693 37.73
-3.8825257 3.0040054 -2.0504501 37.73
-4.1566143 3.2160745 -2.0522156 37.73
-4.4518037 3.4444697 -2.0487006 37.73
-4.8208952 3.7300451 -2.0596328 37.73
-5.2336612 4.0494118 -2.0648677 37.73
-5.7597675 4.4564734 -2.0882287 37.73
-6.3657999 4.9253755 -2.1070521 37.73
-7.1187534 5.5079541 -2.1326733 37.73
-8.0100622 6.1975818 -2.1527176 37.73
-9.1573048 7.0852318 -2.181462 37.73
-10.767107 8.3819637 -2.2418025 37.900002
-11.741388 9.1404209 -2.0912151 37.900002
-14.079164 10.96033 -2.0865312 37.900002
-18.678572 14.540872 -2.2084129 37.900002
-29.52487 22.984484 -2.6164258 37.900002
-3.6403642 2.8339462 -2.0540202 37.900002
-3.8634019 3.0075762 -2.0450542 37.900002
-4.1397033 3.222671 -2.048578 37.900002
-4.4415641 3.4576633 -2.0487006 37.900002
-4.8038263 3.739677 -2.0570717 37.900002
-5.2201166 4.0637498 -2.0642719 37.900002
-5.7450023 4.4723625 -2.0876772 37.900002
-6.338944 4.9347334 -2.1029999 37.900002
-7.099308 5.5266604 -2.1317508 37.900002
-7.9885511 6.2189174 -2.151886 37.900002
-9.1284885 7.1063342 -2.1796105 37.900002
-10.721992 8.3980532 -2.2375875 38.07
-11.715775 9.1764393 -2.0914934 38.07
-14.032507 10.991032 -2.0844405 38.07
-18.622805 14.586405 -2.2069266 38.07
-29.476961 23.087978 -2.6182394 38.07
-3.6290629 2.8424816 -2.0523932 38.07
-45.353455 35.523319 -2.6865594 38.07
-3.8631785 3.0258539 -2.0496793 38.07
-4.1359897 3.2395346 -2.0514879 38.07
-4.432765 3.4719853 -2.0493846 38.07
-4.7971845 3.7574186 -2.0589924 38.07
-5.2050304 4.0768657 -2.0630805 38.07
-5.7271671 4.4858322 -2.0860236 38.07
-6.3273211 4.9559059 -2.104013 38.07
-7.0798149 5.5453005 -2.1308286 38.07
-7.9654441 6.2389736 -2.1506386 38.07
-9.1073627 7.1333876 -2.1796105 38.07
-10.686256 8.424365 -2.235642 38.25
-11.682223 9.2095222 -2.0906584 38.25
-14.046268 11.073185 -2.0916417 38.25
-18.522154 14.601688 -2.2004242 38.25
-29.382349 23.163176 -2.6162863 38.25
-3.6215498 2.8549998 -2.0532067 38.25
-3.8507547 3.0356903 -2.0481377 38.25
-4.125792 3.2525122 -2.0514879 38.25
-4.4203596 3.4847305 -2.0487006 38.25
-4.7808924 3.7689519 -2.0570717 38.25
-5.193696 4.0943799 -2.0636761 38.25
-5.7115364 4.5026121 -2.0854723 38.25
-6.3102012 4.9745612 -2.1035066 38.25
-7.0608306 5.5663099 -2.1303675 38.25
-7.9411955 6.2603335 -2.1493912 38.25
-9.0818214 7.1595306 -2.17887 38.25
-10.655029 8.451129 -2.234345 38.419998
-11.656398 9.2453737 -2.0909367 38.419998
-13.997788 11.102468 -2.0893188 38.419998
-14.019759 11.119895 -1.6694539 38.419998
-29.064953 23.053122 -2.5941038 38.419998
-3.6144946 2.8668678 -2.0540202 38.419998
-3.8460684 3.0505428 -2.0504501 38.419998
-4.1117449 3.2612662 -2.0493057 38.419998
-4.4085283 3.4966629 -2.0480165 38.419998
-4.7682042 3.7819428 -2.0564315 38.419998
-5.1830206 4.1109581 -2.0642719 38.419998
-5.6981516 4.5195389 -2.0854723 38.419998
-6.2923818 4.9908576 -2.1024935 38.419998
-7.0442839 5.5872355 -2.1303675 38.419998
-7.9195204 6.2814369 -2.1485593 38.419998
-9.0497589 7.1778955 -2.1762776 38.419998
-10.631511 8.4870234 -2.2349935 38.599998
-11.631939 9.285655 -2.0917716 38.599998
-14.017177 11.189765 -2.0974493 38.599998
-18.323671 14.627595 -2.1874192 38.599998
-28.870768 23.04723 -2.5832217 38.599998
-3.6068981 2.8793488 -2.0548334 38.599998
-3.8306968 3.0580051 -2.0473666 38.599998
-4.1029348 3.2753298 -2.0500331 38.599998
-4.3989902 3.5116677 -2.0487006 38.599998
-4.7562995 3.7969041 -2.0564315 38.599998
-5.1656041 4.1236477 -2.0624847 38.599998
-5.6809201 4.5350189 -2.0843697 38.599998
-6.2766714 5.010601 -2.1024935 38.599998
-7.0236545 5.6069098 -2.1294453 38.599998
-7.8966899 6.3038445 -2.1477277 38.599998
-9.0210209 7.201386 -2.1747966 38.599998
-10.58628 8.5024652 -2.2307782 38.77
-11.602793 9.3188868 -2.0914934 38.77
-13.982366 11.230062 -2.0972171 38.77
-18.306585 14.703096 -2.1905775 38.77
-28.844257 23.166523 -2.5869887 38.77
-3.59549 2.8877499 -2.0532067 38.77
-3.8259232 3.0728245 -2.0496793 38.77
-4.099009 3.2921555 -2.052943 38.77
-4.3856211 3.5223505 -2.0473325 38.77
-4.740581 3.80744 -2.0545108 38.77
-5.1503692 4.1365647 -2.0612931 38.77
-5.6629424 4.548243 -2.0827157 38.77
-6.2527261 5.0219326 -2.0994544 38.77
-7.0009184 5.6228499 -2.1276009 38.77
-7.87185 6.3223467 -2.1460645 38.77
-8.9934845 7.2231975 -2.1733153 38.77
-10.564031 8.5332346 -2.2311025 38.93
-11.572102 9.347518 -2.0906584 38.93
-13.949405 11.267816 -2.0969846 38.93
-18.226727 14.722878 -2.1859331 38.93
-28.734442 23.210623 -2.5829427 38.93
-3.5859904 2.896631 -2.0523932 38.93
-3.8144562 3.0811772 -2.0481377 38.93
-4.0854516 3.3000772 -2.0507605 38.93
-4.3757677 3.5345838 -2.0473325 38.93
-4.7343521 3.8242352 -2.0564315 38.93
-5.1343417 4.1473322 -2.0595059 38.93
-5.6517148 4.5652471 -2.0832672 38.93
-6.2416878 5.0418057 -2.1004674 38.93
-6.982161 5.6399326 -2.1266787 38.93
-7.8526421 6.3430753 -2.1456487 38.93
-8.9671631 7.2433438 -2.171834 38.93
-10.535639 8.565135 -2.2307782 39.110001
-11.542679 9.3838263 -2.0906584 39.110001
-13.904689 11.304065 -2.0955908 39.110001
-18.157206 14.761224 -2.1831462 39.110001
-28.608747 23.25799 -2.5781994 39.110001
-3.5782905 2.909035 -2.0532067 39.110001
-3.8061895 3.0943096 -2.0489085 39.110001
-4.0736184 3.3117206 -2.0500331 39.110001
-4.3675585 3.5506845 -2.0487006 39.110001
-4.7149634 3.8331137 -2.0532303 39.110001
-5.127213 4.1682591 -2.0618889 39.110001
-5.6373448 4.5829797 -2.0832672 39.110001
-6.2288203 5.0638304 -2.1014805 39.110001
-6.9628983 5.6606121 -2.1262176 39.110001
-7.8281221 6.3640113 -2.1444011 39.110001
-8.9382629 7.26652 -2.1703529 39.110001
-10.499427 8.5814476 -2.2278602 39.259998
-11.518072 9.4140129 -2.0906584 39.259998
-13.871971 11.337914 -2.0951264 39.259998
-18.103081 14.796106 -2.1812885 39.259998
-28.58329 23.361847 -2.581408 39.259998
-3.572077 2.9195492 -2.0540202 39.259998
-3.8009334 3.1065993 -2.0504501 39.259998
-4.0634918 3.3211949 -2.0493057 39.259998
-4.352427 3.557349 -2.0459645 39.259998
-4.7078466 3.8478422 -2.0545108 39.259998
-5.1118484 4.1780434 -2.0601017 39.259998
-5.6178846 4.5916395 -2.0805109 39.259998
-6.200561 5.0678759 -2.0964155 39.259998
-6.9435344 5.675127 -2.1248341 39.259998
-7.8053756 6.3795314 -2.1427379 39.259998
-8.9115992 7.2836761 -2.1685014 39.259998
-10.463292 8.6099482 -2.226239 39.450001
-11.48832 9.4534149 -2.0909367 39.450001
-13.826628 11.377542 -2.0939648 39.450001
-17.98472 14.799118 -2.1729281 39.450001
-28.502581 23.45397 -2.5811291 39.450001
-3.5609651 2.9302175 -2.0532067 39.450001
-3.7906108 3.1191866 -2.0504501 39.450001
-4.0524559 3.3346517 -2.0493057 39.450001
-4.3478627 3.5777335 -2.0493846 39.450001
-4.6979871 3.8658409 -2.0557914 39.450001
-43.698017 35.957863 2.6390443 39.450001
-5.095017 4.1925454 -2.0589101 39.450001
-5.6041117 4.6114655 -2.0810621 39.450001
-6.1837215 5.0884099 -2.0964155 39.450001
-43.624283 35.89719 6.6066518 39.450001
-6.9261799 5.699358 -2.1252952 39.450001
-7.7781348 6.4004078 -2.1410747 39.450001
-8.8813267 7.3081927 -2.1670201 39.450001
-10.428578 8.6334038 -2.2242935 39.619999
-11.470901 9.4963007 -2.092885 39.619999
-13.786689 11.413449 -2.0930357 39.619999
-17.870171 14.794001 -2.164382 39.619999
-28.409813 23.51935 -2.5790362 39.619999
-3.5508478 2.9396052 -2.0523932 39.619999
-3.778496 3.1280661 -2.0489085 39.619999
-43.725323 36.198448 -1.3179089 39.619999
-4.0425444 3.3466609 -2.0493057 39.619999
-43.743267 36.213306 0 39.619999
-4.3299899 3.5846257 -2.0459645 39.619999
-4.6835771 3.8773465 -2.0545108 39.619999
-5.0796137 4.2052093 -2.0577188 39.619999
-5.5904045 4.6280727 -2.0810621 39.619999
-6.1685967 5.1067348 -2.0964155 39.619999
-6.9017434 5.7136779 -2.1229897 39.619999
-7.7576036 6.4222102 -2.1406589 39.619999
-8.8550615 7.3307519 -2.1659093 39.619999
-10.390791 8.6572809 -2.2220237 39.799999
-11.44101 9.5322905 -2.092885 39.799999
-13.767552 11.470692 -2.0955908 39.799999
-14.589348 12.155387 -1.7716349 39.799999
-28.315859 23.591885 -2.5772226 39.799999
-3.5444026 2.9530849 -2.0540202 39.799999
-3.7672324 3.1387398 -2.0481377 39.799999
-4.0305791 3.3581519 -2.048578 39.799999
-4.318707 3.5982111 -2.0459645 39.799999
-4.6742845 3.8944669 -2.0557914 39.799999
-5.0619769 4.2174802 -2.0559316 39.799999
-5.5699291 4.6406903 -2.0788569 39.799999
-6.14955 5.1236119 -2.0954025 39.799999
-6.8807693 5.7328405 -2.1220675 39.799999
-7.7313771 6.4415407 -2.1389954 39.799999
-8.828968 7.3560185 -2.1651685 39.799999
-10.360526 8.6781178 -2.2204025 39.950001
-11.426643 9.5711126 -2.0948336 39.950001
-13.722246 11.49394 -2.0932679 39.950001
-14.368179 12.034983 -1.7485977 39.950001
-28.212702 23.631344 -2.5734558 39.950001
-3.5324574 2.9588344 -2.0515797 39.950001
-3.7604172 3.1497767 -2.0489085 39.950001
-4.0189171 3.3662999 -2.0471232 39.950001
-4.3092723 3.6095049 -2.0459645 39.950001
-4.6611676 3.9042575 -2.0545108 39.950001
-5.0538454 4.23317 -2.0571229 39.950001
-5.5562873 4.6540217 -2.0783057 39.950001
-6.1331491 5.1372089 -2.0943894 39.950001
-6.8612614 5.747086 -2.1206841 39.950001
-7.7114873 6.4592471 -2.1381638 39.950001
-8.802146 7.3727975 -2.163317 39.950001
-10.325657 8.7073374 -2.2191057 40.139999
-11.394842 9.6089516 -2.0948336 40.139999
-13.681019 11.53682 -2.0928032 40.139999
-14.282521 12.044051 -1.7430242 40.139999
-28.108253 23.702906 -2.571084 40.139999
-3.5240228 2.9717102 -2.0523932 40.139999
-3.7499514 3.1622293 -2.0489085 40.139999
-4.0105805 3.3820105 -2.048578 40.139999
-4.2972789 3.6237752 -2.0459645 40.139999
-4.6496434 3.9209144 -2.055151 40.139999
-5.0412397 4.2511363 -2.0577188 40.139999
-5.5408235 4.6724215 -2.0783057 40.139999
-6.1131215 5.1550245 -2.0933764 40.139999
-6.8406777 5.7685523 -2.120223 40.139999
-7.6855388 6.4810004 -2.1369164 40.139999
-8.7731409 7.3981447 -2.1622062 40.139999
-10.296785 8.7323093 -2.218133 40.299999
-11.366454 9.6394539 -2.0945551 40.299999
-13.651778 11.57755 -2.0932679 40.299999
-17.612844 14.936778 -2.1545355 40.299999
-27.947613 23.7013 -2.5624342 40.299999
-3.5129237 2.979176 -2.0507662 40.299999
-3.7354763 3.1679144 -2.045825 40.299999
-4.008225 3.3992219 -2.0522156 40.299999
-4.2885761 3.636977 -2.0466485 40.299999
-4.6314507 3.9277558 -2.05195 40.299999
-5.0235243 4.2602582 -2.0553358 40.299999
-5.5218887 4.6829023 -2.0761006 40.299999
-6.098702 5.1720753 -2.0933764 40.299999
-6.8200893 5.7838564 -2.1188395 40.299999
-7.6629348 6.498641 -2.135669 40.299999
-8.7464514 7.4175301 -2.1607249 40.299999
-10.263324 8.7564173 -2.2165117 40.470001
-11.334789 9.6705656 -2.0939984 40.470001
-13.618878 11.619294 -2.0935001 40.470001
-14.314415 12.212708 -1.7554718 40.470001
-27.910559 23.812607 -2.5655036 40.470001
-3.5110185 2.9955153 -2.0548334 40.470001
-3.7316763 3.1837749 -2.0489085 40.470001
-3.9924524 3.4062629 -2.0493057 40.470001
-4.2806253 3.6521251 -2.0480165 40.470001
-4.6111279 3.9341016 -2.0481086 40.470001
-5.009409 4.2739053 -2.05474 40.470001
-5.5050449 4.6967697 -2.0749979 40.470001
-6.0789137 5.1863804 -2.091857 40.470001
-6.8028984 5.8040667 -2.1188395 40.470001
-7.6421309 6.5200791 -2.135253 40.470001
-8.7199192 7.4396219 -2.1596141 40.470001
-10.229775 8.7834749 -2.2152147 40.650002
-11.30285 9.7048368 -2.0937202 40.650002
-13.577786 11.658139 -2.0928032 40.650002
-17.398893 14.939013 -2.139487 40.650002
-27.755384 23.831287 -2.5581095 40.650002
-3.4946594 3.0005794 -2.0507662 40.650002
-3.7202556 3.1942804 -2.0481377 40.650002
-3.9803181 3.4175749 -2.048578 40.650002
-4.2634273 3.6606576 -2.0452805 40.650002
-4.6001835 3.9498026 -2.0487487 40.650002
-4.9988546 4.2921095 -2.0559316 40.650002
-5.4902625 4.7140412 -2.0749979 40.650002
-6.0625901 5.2054524 -2.091857 40.650002
-6.7787247 5.8203387 -2.1169951 40.650002
-7.6201253 6.5427809 -2.1348372 40.650002
-8.6965036 7.4669795 -2.1596141 40.650002
-10.193214 8.8047581 -2.212945 40.82
-11.272507 9.7370358 -2.0934417 40.82
-13.543137 11.698374 -2.0928032 40.82
-14.210912 12.275189 -1.7519419 40.82
-27.684553 23.913534 -2.5581095 40.82
-3.4926546 3.0169067 -2.0548334 40.82
-3.7135549 3.2077172 -2.0496793 40.82
-3.9687507 3.4281518 -2.0478506 40.82
-63.769722 55.083405 0 40.82
-4.2539697 3.67452 -2.0459645 40.82
-4.5870099 3.9621959 -2.0481086 40.82
-4.9788737 4.3006821 -2.0529528 40.82
-5.4747968 4.7290535 -2.0744467 40.82
-6.0456543 5.2221527 -2.0913506 40.82
-6.7525892 5.8327932 -2.1142285 40.82
-7.5947571 6.5602465 -2.1331739 40.82
-8.6668739 7.4863257 -2.1577625 40.82
-10.156567 8.828968 -2.2109995 41
-11.243356 9.7737007 -2.0937202 41
-13.501821 11.736954 -2.0921063 41
-14.193319 12.338064 -1.7545428 41
-27.582188 23.97683 -2.5555983 41
-3.476265 3.0218711 -2.0507662 41
-3.7020664 3.2181571 -2.0489085 41
-3.9621794 3.4442699 -2.0500331 41
-63.709564 55.381878 0 41
-4.2424045 3.687866 -2.0459645 41
-4.5745397 3.9765868 -2.0481086 41
-4.9667788 4.317555 -2.0535486 41
-5.4599128 4.7462296 -2.0744467 41
-6.0262985 5.2385812 -2.0903375 41
-6.7386379 5.8578086 -2.1156118 41
-7.5726337 6.5827899 -2.1327581 41
-8.6358957 7.5070696 -2.155911 41
-10.12884 8.8577652 -2.2106752 41.169998
-11.214308 9.8070173 -2.0937202 41.169998
-13.48189 11.790039 -2.0944295 41.169998
-17.238613 15.075329 -2.1365144 41.169998
-27.473379 24.025728 -2.5521104 41.169998
-3.4672835 3.032172 -2.0507662 41.169998
-3.6925015 3.2291272 -2.0489085 41.169998
-3.9519424 3.4560108 -2.0500331 41.169998
-4.2286143 3.697963 -2.0445964 41.169998
-4.5655732 3.9926367 -2.0493889 41.169998
-4.9525094 4.3310161 -2.0529528 41.169998
-5.4400177 4.7573466 -2.0722415 41.169998
-6.0078158 5.253891 -2.0893245 41.169998
-6.713903 5.8713713 -2.1133063 41.169998
-7.5471783 6.6000781 -2.1310949 41.169998
-8.6061859 7.5261903 -2.1540594 41.169998
-10.092142 8.8786545 -2.2084057 41.34
-11.191108 9.84548 -2.0948336 41.34
-13.422986 11.808995 -2.0907125 41.34
-17.134003 15.073796 -2.1290832 41.34
-27.333067 24.046516 -2.5456927 41.34
-3.4623871 3.0460668 -2.0532067 41.34
-37.421406 32.921825 -2.3243268 41.34
-3.6801331 3.2376308 -2.0473666 41.34
-3.9416709 3.4677212 -2.0500331 41.34
-4.2218571 3.7142174 -2.0466485 41.34
-4.5480165 4.0011592 -2.046828 41.34
-4.9367704 4.3431692 -2.0517612 41.34
-5.4258785 4.7734666 -2.0722415 41.34
-5.9878426 5.2678595 -2.087805 41.34
-6.6964526 5.8912659 -2.1133063 41.34
-7.5187497 6.6146889 -2.1285999 41.34
-8.5808668 7.5490961 -2.1533189 41.34
-10.064352 8.9041872 -2.2077572 41.5
-11.169504 9.8819427 -2.0959468 41.5
-13.388469 11.845117 -2.0904803 41.5
-17.112722 15.140058 -2.1316841 41.5
-27.250868 24.109531 -2.5442977 41.5
-3.4524989 3.054513 -2.0523932 41.5
-37.323341 33.020901 -2.3239541 41.5
-3.673842 3.2503409 -2.0489085 41.5
-3.9291813 3.4762459 -2.048578 41.5
-4.203023 3.7185206 -2.0425444 41.5
-4.5325685 4.0100775 -2.0449073 41.5
-4.9217629 4.3544078 -2.0505698 41.5
-5.4082079 4.7847781 -2.0705879 41.5
-5.9731088 5.2845602 -2.087805 41.5
-6.6741447 5.9047847 -2.1114616 41.5
-7.4973183 6.6330671 -2.1277683 41.5
-8.561224 7.5743313 -2.1536891 41.5
-10.021589 8.9226379 -2.2045147 41.68
-11.148758 9.9262028 -2.0978954 41.68
-13.355641 11.891082 -2.0911772 41.68
-16.44339 14.640233 -2.0540264 41.68
-27.088564 24.118074 -2.5362058 41.68
-3.4401567 3.0629144 -2.0507662 41.68
-3.6622343 3.2606392 -2.0481377 41.68
-3.9168496 3.4873338 -2.0478506 41.68
-4.1983385 3.7379551 -2.0459645 41.68
-4.5270238 4.0305972 -2.0481086 41.68
-4.9052072 4.3673096 -2.0493782 41.68
-5.3874059 4.7966309 -2.0683827 41.68
-5.9521422 5.2994394 -2.0862854 41.68
-6.6526546 5.9231348 -2.1105394 41.68
-7.4735208 6.653986 -2.1269367 41.68
-8.5271111 7.592041 -2.1510971 41.68
-9.9921312 8.9496994 -2.2038662 41.849998
-11.135486 9.973773 -2.1009572 41.849998
-13.298105 11.910777 -2.0876927 41.849998
-16.981352 15.209767 -2.1268537 41.849998
-26.972301 24.158407 -2.5320206 41.849998
-3.4296927 3.0718889 -2.0499527 41.849998
-36.841156 32.997692 -2.3064387 41.849998
-3.6539183 3.2727222 -2.0489085 41.849998
-3.9064853 3.49894 -2.0478506 41.849998
-4.1858292 3.7491415 -2.0452805 41.849998
-4.5093989 4.0389547 -2.0455475 41.849998
-4.8936496 4.3831182 -2.049974 41.849998
-5.3717179 4.8113117 -2.0678315 41.849998
-5.9349513 5.3157854 -2.085779 41.849998
-6.6278028 5.9363556 -2.1082339 41.849998
-7.4464588 6.6696048 -2.1248574 41.849998
-8.5074759 7.6199307 -2.1518376 41.849998
-9.959568 8.9770823 -2.2028935 42.029999
-11.13352 10.035227 -2.106524 42.029999
-13.25767 11.949835 -2.0872281 42.029999
-16.866922 15.203044 -2.1184936 42.029999
-26.828102 24.181578 -2.5256028 42.029999
-3.4227395 3.0850952 -2.0515797 42.029999
-27.094433 24.421638 -1.7010404 42.029999
-3.6436188 3.2841852 -2.0489085 42.029999
-3.9010091 3.5161846 -2.0507605 42.029999
-4.1670504 3.7559817 -2.0418603 42.029999
-4.5009103 4.0569072 -2.0474682 42.029999
-4.8812737 4.3997488 -2.0505698 42.029999
-5.3551483 4.8268766 -2.0672801 42.029999
-5.9153476 5.3318138 -2.0847659 42.029999
-6.6105661 5.9584508 -2.108695 42.029999
-7.4211097 6.6890364 -2.12361 42.029999
-8.4645157 7.6295133 -2.1470237 42.029999
-9.9168062 8.9920111 -2.199327 42.200001
-11.125704 10.088172 -2.1106992 42.200001
-13.213326 11.981112 -2.0858343 42.200001
-16.7111 15.152699 -2.1045597 42.200001
-26.778406 24.281176 -2.5276957 42.200001
-3.4135706 3.095237 -2.0515797 42.200001
-3.6283898 3.2900231 -2.045825 42.200001
-3.8850386 3.522738 -2.0478506 42.200001
-4.1544957 3.7670665 -2.0411763 42.200001
-4.4846425 4.0664253 -2.0455475 42.200001
-4.8625402 4.4090824 -2.0481868 42.200001
-5.3393788 4.8414531 -2.0667288 42.200001
-5.8966351 5.3467422 -2.0837529 42.200001
-6.5870914 5.9728098 -2.1068506 42.200001
-7.3983316 6.7083974 -2.1227784 42.200001
-8.4403858 7.6532741 -2.1466534 42.200001
-9.8886251 9.0200653 -2.1990027 42.369999
-11.124988 10.147833 -2.1162663 42.369999
-13.171849 12.01491 -2.0849051 42.369999
-16.209986 14.786195 -2.0469668 42.369999
-26.762257 24.411613 -2.5329971 42.369999
-3.4084215 3.1090455 -2.0540202 42.369999
-3.6199756 3.3020179 -2.0465958 42.369999
-3.8745694 3.5342495 -2.0478506 42.369999
-4.1502428 3.7857094 -2.0445964 42.369999
-4.4697576 4.0771599 -2.0442672 42.369999
-4.8494372 4.4234905 -2.0481868 42.369999
-5.3264108 4.8585696 -2.0672801 42.369999
-5.8764567 5.3603024 -2.0822334 42.369999
-6.5650272 5.9883928 -2.1054671 42.369999
-7.3740592 6.7263641 -2.121531 42.369999
-8.4190931 7.6796083 -2.1470237 42.369999
-9.8604889 9.0449762 -2.1983542 42.529999
-11.122877 10.202958 -2.1212764 42.529999
-13.144101 12.057017 -2.0858343 42.529999
-16.614744 15.240621 -2.1034451 42.529999
-26.517551 24.324413 -2.5162556 42.529999
-3.3983798 3.1173165 -2.0532067 42.529999
-3.6093805 3.3108664 -2.045825 42.529999
-3.863312 3.5437963 -2.0471232 42.529999
-4.1410398 3.7985547 -2.0452805 42.529999
-4.4653363 4.0960302 -2.0474682 42.529999
-4.8328447 4.4331436 -2.0463996 42.529999
-5.3085723 4.8695259 -2.0656264 42.529999
-5.861465 5.3766918 -2.0822334 42.529999
-6.5568838 6.014596 -2.1082339 42.529999
-7.3552465 6.7469301 -2.121531 42.529999
-8.387476 7.6937885 -2.1444316 42.529999
-9.8218737 9.0665388 -2.1960845 42.709999
-11.12133 10.266062 -2.1271217 42.709999
-13.093021 12.086124 -2.0837436 42.709999
-16.588732 15.313003 -2.1062317 42.709999
-26.311995 24.288513 -2.5039785 42.709999
-3.3885696 3.1279774 -2.0532067 42.709999
-3.6030295 3.3259444 -2.0481377 42.709999
-3.848053 3.5521247 -2.0449407 42.709999
-4.1208 3.8038967 -2.0411763 42.709999
-4.4510541 4.1087527 -2.046828 42.709999
-4.8174906 4.4470096 -2.0458038 42.709999
-5.2918353 4.8848753 -2.0650752 42.709999
-5.843123 5.3937674 -2.081727 42.709999
-6.5322361 6.0298848 -2.1063895 42.709999
-7.3311396 6.7673502 -2.1206992 42.709999
-8.3603754 7.7174344 -2.1436911 42.709999
-9.786253 9.0875835 -2.194139 42.880001
-11.122749 10.328664 -2.1332452 42.880001
-13.049826 12.11816 -2.082582 42.880001
-16.454212 15.279497 -2.0948989 42.880001
-26.184258 24.314886 -2.4986768 42.880001
-3.3779352 3.1367743 -2.0523932 42.880001
-3.5931454 3.3366203 -2.0481377 42.880001
-3.8388617 3.5647943 -2.0456681 42.880001
-4.1094956 3.8161066 -2.0411763 42.880001
-4.4388433 4.1219416 -2.046828 42.880001
-4.804275 4.4612837 -2.0458038 42.880001
-5.2745008 4.8979387 -2.0639725 42.880001
-5.8228402 5.4071307 -2.0802073 42.880001
-6.5114641 6.0465913 -2.1054671 42.880001
-7.305294 6.7837477 -2.119036 42.880001
-8.3259192 7.7315068 -2.1407285 42.880001
-9.7504454 9.1115456 -2.1925178 43.060001
-11.122082 10.393305 -2.139369 43.060001
-13.008788 12.156385 -2.0821173 43.060001
-16.443956 15.366465 -2.0997293 43.060001
-26.202492 24.485569 -2.5077453 43.060001
-3.3640592 3.1436286 -2.0499527 43.060001
-26.056959 24.349573 -1.6631215 43.060001
-3.5812969 3.346632 -2.0473666 43.060001
-3.829005 3.5781088 -2.0463958 43.060001
-4.0988598 3.8302813 -2.0418603 43.060001
-4.4300251 4.1397471 -2.0487487 43.060001
-4.7930255 4.4789619 -2.0469952 43.060001
-5.2548733 4.9105468 -2.0623188 43.060001
-5.8029976 5.4227548 -2.0791943 43.060001
-6.4796386 6.0550594 -2.1013172 43.060001
-7.2796583 6.8026571 -2.1177886 43.060001
-8.3001528 7.7562838 -2.1403582 43.060001
-9.7176161 9.1350288 -2.191221 43.23
-11.122942 10.456102 -2.1454926 43.23
-12.972662 12.194929 -2.0821173 43.23
-16.399742 15.416551 -2.099915 43.23
-26.241659 24.668428 -2.5184877 43.23
-3.3560481 3.1548474 -2.0507662 43.23
-25.916183 24.362465 -1.6587427 43.23
-3.5740409 3.3597713 -2.0489085 43.23
-3.8170142 3.5881779 -2.0456681 43.23
-4.0902157 3.8450005 -2.0432284 43.23
-4.4149618 4.1502776 -2.0474682 43.23
-4.771369 4.4853172 -2.0434208 43.23
-5.2402806 4.9261169 -2.0623188 43.23
-5.7840629 5.4372983 -2.0781815 43.23
-6.4588084 6.0715923 -2.100395 43.23
-7.2594423 6.8242264 -2.1177886 43.23
-8.2713747 7.7754917 -2.1388769 43.23
-9.683135 9.1600876 -2.189924 43.41
-11.118814 10.518216 -2.1510594 43.41
-12.93573 12.236989 -2.0823498 43.41
-16.341103 15.458416 -2.0986147 43.41
-26.219109 24.802847 -2.5237892 43.41
-3.3501024 3.169142 -2.0532067 43.41
-25.753889 24.362759 -1.6532458 43.41
-3.5621276 3.3697145 -2.0481377 43.41
-3.8057227 3.6001515 -2.0456681 43.41
-4.0767508 3.8565397 -2.0425444 43.41
-4.3991485 4.1615229 -2.0461879 43.41
-4.7530932 4.4963489 -2.0416336 43.41
-5.219192 4.9372706 -2.0601137 43.41
-5.7641416 5.4527836 -2.0771685 43.41
-6.4382887 6.0905156 -2.0999339 43.41
-7.2308617 6.8402772 -2.1157093 43.41
-8.2411957 7.7960358 -2.1373959 43.41
-9.6475077 9.1775703 -2.1876543 43.57
-11.118097 10.576526 -2.1566265 43.57
-12.901507 12.273065 -2.0823498 43.57
-16.279116 15.486146 -2.0961995 43.57
-26.103487 24.831964 -2.5193248 43.57
-3.3359442 3.1734476 -2.0499527 43.57
-25.609039 24.361603 -1.6483079 43.57
-3.5540409 3.3809206 -2.0489085 43.57
-3.7983541 3.6133332 -2.0471232 43.57
-4.0714121 3.8730905 -2.0452805 43.57
-4.3833919 4.1698732 -2.0442672 43.57
-4.7336025 4.5030246 -2.0386548 43.57
-5.2165279 4.9624267 -2.0645237 43.57
-5.7446866 5.4648581 -2.0756488 43.57
-6.4254856 6.1124949 -2.1013172 43.57
-7.2074795 6.8563976 -2.1144619 43.57
-8.2151203 7.8149552 -2.1362848 43.57
