# .PCD v0.7 - Point Cloud Data file format
VERSION 0.7
FIELDS x y z intensity
SIZE 4 4 4 4
TYPE F F F F
COUNT 1 1 1 1
WIDTH 1230
HEIGHT 1
VIEWPOINT 0 0 0 1 0 0 0
POINTS 1230
DATA ascii
8.1105938 1.7003015 -1.3614881 168.16
12.178469 2.5530891 -1.4551359 168.16
14.311195 3.0001931 -1.0224904 168.16
4.4186878 0.92633188 -2.0100925 168.16
13.599277 2.8509469 -0.64797544 168.16
4.7051935 0.98639482 -2.0080535 168.16
36.011269 7.5493875 -0.85425007 168.16
5.0251946 1.0534798 -2.0049295 168.16
11.458905 2.4022403 0 168.16
5.3471365 1.1209714 -1.9885051 168.16
5.7691751 1.2094475 -1.9917679 168.16
6.1925082 1.2981949 -1.9743139 168.16
6.7079773 1.4062576 -1.9652944 168.16
7.0670528 1.4815341 -1.8902688 168.16
7.2623577 1.5224777 -1.5772181 168.16
7.9887285 1.6747538 -1.5378733 168.16
7.7947669 1.6099627 -1.307664 168.33
12.191827 2.5181491 -1.4558328 168.33
14.236017 2.9403646 -1.0164913 168.33
4.4214168 0.91321731 -2.0100925 168.33
13.609632 2.8109887 -0.64806861 168.33
4.7026777 0.97131008 -2.0057411 168.33
36.002178 7.4360356 -0.85350734 168.33
5.0246496 1.0378114 -2.0034745 168.33
11.448355 2.3645895 0 168.33
5.3504386 1.1051012 -1.9885051 168.33
11.457019 2.366379 0.2716127 168.33
5.765316 1.1907917 -1.9892069 168.33
6.1944633 1.2794294 -1.973718 168.33
6.7083545 1.3855708 -1.9641918 168.33
7.0088892 1.4476444 -1.8735542 168.33
7.2595277 1.4994123 -1.7564005 168.33
8.3454704 1.7237072 -1.8113266 168.33
8.131855 1.6559228 -1.3634335 168.49001
8.1529112 1.6602105 -1.1693324 168.49001
12.206597 2.4856789 -1.4567621 168.49001
13.190829 2.6861022 -1.255899 168.49001
14.310643 2.9141343 -1.0212348 168.49001
4.4275303 0.90159601 -2.0117195 168.49001
13.854305 2.8212085 -0.65934181 168.49001
4.7107968 0.95927864 -2.0080535 168.49001
36.040436 7.3390608 -0.85392511 168.49001
5.0257025 1.0234042 -2.0027471 168.49001
11.472551 2.3362021 0 168.49001
5.3498206 1.0894058 -1.9871371 168.49001
5.7779021 1.1765777 -1.9924082 168.49001
6.1998825 1.2625073 -1.9743139 168.49001
6.6914749 1.3626122 -1.9581277 168.49001
6.9996328 1.4253637 -1.8700087 168.49001
7.0748959 1.4406898 -1.7107497 168.49001
8.3790054 1.7062509 -1.817564 168.49001
8.2428303 1.678521 -1.5849019 168.49001
8.0554619 1.6154892 -1.3498154 168.66
8.1539183 1.6352342 -1.1687757 168.66
12.21197 2.4490597 -1.4565297 168.66
13.202646 2.6477356 -1.2562705 168.66
14.364219 2.8806841 -1.0244436 168.66
4.4319773 0.88881457 -2.0125329 168.66
24.741938 4.9618921 -1.1767905 168.66
4.7172413 0.94602299 -2.0095952 168.66
36.04245 7.2281628 -0.85346091 168.66
5.0232368 1.0073892 -2.0005646 168.66
11.473549 2.3009725 0 168.66
5.3530293 1.0735277 -1.9871371 168.66
5.7720785 1.1575663 -1.9892069 168.66
6.1923695 1.2418538 -1.9707394 168.66
6.6954885 1.3427523 -1.9581277 168.66
6.996243 1.4030674 -1.8679827 168.66
7.2565947 1.4552797 -1.7536337 168.66
8.4434919 1.6933072 -1.8304545 168.66
8.2111607 1.646714 -1.5778662 168.66
8.0295181 1.5840627 -1.3446275 168.84
11.378707 2.2447906 -1.6299953 168.84
12.180626 2.4029932 -1.4518837 168.84
13.197223 2.6035471 -1.2549701 168.84
14.334049 2.8278203 -1.0216533 168.84
4.4222002 0.87241131 -2.0068386 168.84
24.745642 4.8818188 -1.1762315 168.84
4.7147579 0.93012714 -2.0072827 168.84
36.076748 7.1172185 -0.85373944 168.84
5.0282044 0.99196386 -2.001292 168.84
11.476797 2.2641416 0 168.84
5.3674388 1.058888 -1.9912412 168.84
11.452127 2.2592747 0.27100924 168.84
5.7812634 1.1405272 -1.9911276 168.84
6.1887479 1.2209158 -1.9683564 168.84
6.7109909 1.3239439 -1.9614354 168.84
7.0575628 1.3923155 -1.8831778 168.84
6.8525372 1.351868 -1.6549544 168.84
8.4142227 1.6599573 -1.8229697 168.84
8.254858 1.6285179 -1.5852722 168.84
8.2049475 1.5919081 -1.3731607 169.02
11.412923 2.2143135 -1.6338922 169.02
12.174465 2.3620663 -1.4502577 169.02
13.199472 2.5609362 -1.2544127 169.02
14.348739 2.7839146 -1.0220718 169.02
4.4302998 0.85955828 -2.009279 169.02
13.566008 2.6320508 -0.64443511 169.02
4.7194686 0.91566223 -2.0080535 169.02
36.089115 7.0019412 -0.85350734 169.02
5.0459275 0.9790011 -2.0071118 169.02
11.464219 2.2242658 0 169.02
5.3615141 1.0402306 -1.9878211 169.02
5.7792377 1.1212766 -1.9892069 169.02
6.1963015 1.2021946 -1.9695479 169.02
6.7245536 1.304685 -1.9641918 169.02
7.0846949 1.3745589 -1.8892558 169.02
8.2252035 1.5958382 -1.5786067 169.02
10.018274 1.9129002 -1.6756777 169.19
11.37859 2.1726403 -1.628047 169.19
12.206785 2.3307769 -1.4532776 169.19
13.201144 2.5206411 -1.2538553 169.19
14.233473 2.7177548 -1.0132825 169.19
4.4292417 0.84572423 -2.007652 169.19
24.747528 4.7253203 -1.1749272 169.19
4.7312284 0.90338588 -2.0119078 169.19
36.121517 6.8970819 -0.85378587 169.19
5.0341702 0.96122998 -2.001292 169.19
11.470768 2.1902411 0 169.19
5.3719611 1.0257281 -1.9905572 169.19
5.7825394 1.1041244 -1.9892069 169.19
6.1979661 1.1834464 -1.9689521 169.19
6.7208414 1.2832848 -1.9619867 169.19
7.096344 1.3549837 -1.8912818 169.19
7.0403557 1.3442932 -1.6982995 169.19
8.2067356 1.5670031 -1.5741631 169.19
10.29933 1.9349103 -1.7217199 169.36
11.40445 2.1425266 -1.6308304 169.36
12.225361 2.2967491 -1.4546714 169.36
13.19878 2.4796231 -1.2529265 169.36
14.184609 2.6648285 -1.0092367 169.36
4.4299355 0.8322413 -2.0068386 169.36
24.759476 4.6515031 -1.174834 169.36
4.7302604 0.88866264 -2.0103662 169.36
11.544868 2.1689065 -0.27272683 169.36
5.0498171 0.94869697 -2.0063844 169.36
11.457561 2.1525042 0 169.36
5.3749804 1.0097847 -1.9905572 169.36
5.787652 1.0873122 -1.9898472 169.36
6.2089558 1.1664615 -1.9713351 169.36
6.7189512 1.2622732 -1.9603329 169.36
7.1269546 1.3389238 -1.8983729 169.36
7.4746614 1.4042466 -1.8020512 169.36
7.3464837 1.3801662 -1.5888611 169.36
8.2828197 1.5560733 -1.5878644 169.36
10.22934 1.8903564 -1.7090745 169.53
11.393229 2.1054404 -1.6283252 169.53
12.239935 2.2619095 -1.4556005 169.53
13.200204 2.4393649 -1.252369 169.53
14.15714 2.6162043 -1.0067254 169.53
4.4305887 0.81876177 -2.0060251 169.53
24.763346 4.5762048 -1.1743681 169.53
4.7110991 0.87059939 -2.001116 169.53
36.151978 6.6807957 -0.85355377 169.53
5.0416179 0.93167841 -2.0020196 169.53
11.459963 2.1177726 0 169.53
5.381649 0.99451542 -1.9919254 169.53
5.7908525 1.0701351 -1.9898472 169.53
6.2011247 1.1459525 -1.9677606 169.53
6.7396817 1.2454764 -1.9652944 169.53
7.2640767 1.3423834 -1.9338281 169.53
7.7505422 1.4322809 -1.86753 169.53
7.3505464 1.3583627 -1.5888611 169.53
8.4132853 1.53047 -1.4049364 169.69
11.426344 2.0785789 -1.6322222 169.69
12.244249 2.227365 -1.4553683 169.69
13.191291 2.3996422 -1.2508827 169.69
14.201686 2.5834444 -1.0093762 169.69
4.4364529 0.80704004 -2.007652 169.69
24.736717 4.4998837 -1.1725049 169.69
4.7353001 0.8614037 -2.0103662 169.69
36.166557 6.5790987 -0.85346091 169.69
5.0441999 0.91759592 -2.0020196 169.69
11.4678 2.0861201 0 169.69
5.3788586 0.97847408 -1.9898732 169.69
11.454875 2.0837688 0.27031291 169.69
5.7919545 1.0536208 -1.9892069 169.69
6.2043004 1.1286311 -1.9677606 169.69
6.7412419 1.2263067 -1.964743 169.69
7.0774412 1.2874651 -1.8831778 169.69
7.7525969 1.4102834 -1.8670689 169.69
7.356236 1.338181 -1.5892769 169.69
9.3687077 1.7042719 -1.7941238 169.69
8.4199944 1.5043786 -1.4052607 169.87
11.411371 2.0388401 -1.6291603 169.87
12.215988 2.1825986 -1.4511868 169.87
13.194844 2.3574884 -1.2505112 169.87
14.225444 2.5416229 -1.0104923 169.87
4.4407649 0.79341996 -2.0084655 169.87
24.768433 4.4253111 -1.1733433 169.87
4.7379832 0.84652305 -2.0103662 169.87
11.557811 2.0650039 -0.27258757 169.87
5.0433898 0.90108931 -2.0005646 169.87
11.462484 2.0479722 0 169.87
5.3893061 0.96289325 -1.9926094 169.87
5.7952356 1.0354197 -1.9892069 169.87
6.2115746 1.1098058 -1.9689521 169.87
6.7507386 1.2061369 -1.9663969 169.87
7.2204895 1.290066 -1.9201525 169.87
7.7531576 1.3852365 -1.8661467 169.87
9.3643417 1.6731025 -1.7922723 169.87
10.316052 1.8097175 -1.7207471 170.05
11.41577 2.0026379 -1.6288819 170.05
12.109303 2.1243024 -1.4377134 170.05
13.184533 2.3129272 -1.2488391 170.05
14.347336 2.5169146 -1.018584 170.05
4.4414363 0.77914923 -2.007652 170.05
24.760567 4.3436799 -1.1723185 170.05
4.7351661 0.83067745 -2.0080535 170.05
36.18552 6.3479285 -0.85295027 170.05
5.0498657 0.8858844 -2.0020196 170.05
11.474771 2.0129883 0 170.05
5.3997092 0.94725651 -1.9953455 170.05
5.79846 1.0172083 -1.9892069 170.05
6.2075086 1.0889666 -1.9665691 170.05
6.7450266 1.183262 -1.9636406 170.05
7.2664323 1.2747307 -1.9312955 170.05
7.7517204 1.3598636 -1.8647633 170.05
8.4396925 1.4805527 -1.8213065 170.05
9.3579359 1.6416377 -1.7900505 170.05
10.356384 1.7851355 -1.7265835 170.22
11.406048 1.9660665 -1.6266552 170.22
12.22322 2.1069229 -1.4504899 170.22
13.171713 2.2704153 -1.2469814 170.22
14.417656 2.4851792 -1.0230484 170.22
4.4419279 0.76565748 -2.0068386 170.22
24.74972 4.2661223 -1.1712005 170.22
4.7430658 0.81756479 -2.0103662 170.22
36.196312 6.2391777 -0.85276461 170.22
5.0469642 0.86994791 -1.999837 170.22
11.488577 1.9802922 0 170.22
5.3932352 0.92963487 -1.9919254 170.22
11.479571 1.9787397 0.27045217 170.22
5.7958508 0.99903393 -1.9872862 170.22
6.2144752 1.0711924 -1.9677606 170.22
6.7333508 1.1606313 -1.9592303 170.22
7.1309943 1.2291733 -1.8943208 170.22
7.7499676 1.3358661 -1.86338 170.22
8.4286251 1.4528466 -1.8179798 170.22
8.5899601 1.480656 -1.6422991 170.22
10.371671 1.7542368 -1.7282047 170.39999
11.3653 1.9222966 -1.6199749 170.39999
12.018245 2.0327339 -1.4254013 170.39999
13.170927 2.2276955 -1.2462382 170.39999
14.433261 2.4412034 -1.0236065 170.39999
4.4425097 0.75139427 -2.0060251 170.39999
24.808308 4.1960111 -1.1733433 170.39999
4.7456107 0.80265999 -2.0103662 170.39999
11.562617 1.9556704 -0.27226263 170.39999
5.0515089 0.85439879 -2.0005646 170.39999
11.484881 1.9425224 0 170.39999
5.4035416 0.91394067 -1.9946615 170.39999
5.7970929 0.98050481 -1.9866461 170.39999
6.2140446 1.0510271 -1.9665691 170.39999
6.742651 1.140434 -1.9608841 170.39999
7.0661435 1.1951487 -1.8760867 170.39999
7.7522073 1.3111877 -1.8629189 170.39999
8.4292898 1.4257077 -1.8171482 170.39999
10.37099 1.7224858 -1.727232 170.57001
11.411983 1.8953812 -1.6258202 170.57001
12.210387 2.0279856 -1.4474699 170.57001
14.424696 2.3957534 -1.0224904 170.57001
4.4429173 0.73791045 -2.0052116 170.57001
24.773348 4.1145291 -1.1711073 170.57001
4.7497921 0.78887832 -2.011137 170.57001
36.216 6.0150037 -0.85234678 170.57001
5.0521841 0.83910173 -1.999837 170.57001
11.547812 1.9179404 0 170.57001
5.4043756 0.89759612 -1.9939774 170.57001
5.7981071 0.96298981 -1.9860058 170.57001
6.2209029 1.0332106 -1.9677606 170.57001
6.7497978 1.1210532 -1.9619867 170.57001
7.2948794 1.2115841 -1.9358541 170.57001
7.7541437 1.2878619 -1.8624578 170.57001
8.4296236 1.4000502 -1.8163165 170.57001
9.3569384 1.5540651 -1.787088 170.57001
10.387446 1.6954253 -1.7291775 170.73
11.436778 1.866696 -1.6286036 170.73
12.214042 1.9935598 -1.4472377 170.73
14.439206 2.3567481 -1.0230484 170.73
4.4449606 0.72550064 -2.0052116 170.73
24.766994 4.0424366 -1.1702689 170.73
4.7446909 0.77442223 -2.0080535 170.73
29.408815 4.8000679 -0.69182092 170.73
5.0545077 0.82499009 -1.999837 170.73
11.472193 1.8724762 0 170.73
5.3957319 0.88068432 -1.9898732 170.73
11.498702 1.876803 0.2704986 170.73
5.787684 0.94465816 -1.9815241 170.73
6.218111 1.0149119 -1.9659733 170.73
6.7566972 1.1028192 -1.9630892 170.73
7.3116012 1.19339 -1.9393996 170.73
7.7519479 1.2652627 -1.8610743 170.73
8.4354305 1.37682 -1.8167324 170.73
9.3515434 1.5263466 -1.7852365 170.73
10.403831 1.6682863 -1.7311229 170.89
11.451724 1.8363191 -1.6299953 170.89
12.192101 1.9550409 -1.4439855 170.89
13.185564 2.1143456 -1.2458667 170.89
14.441791 2.3157854 -1.0227695 170.89
4.4325371 0.71077091 -1.9987038 170.89
24.778187 3.9732583 -1.1702689 170.89
4.7468348 0.76116955 -2.0080535 170.89
29.428026 4.7188745 -0.69196022 170.89
5.0586314 0.811167 -2.0005646 170.89
29.426083 4.7185626 0 170.89
5.4000258 0.86591071 -1.9905572 170.89
29.398413 4.7141256 0.69126385 170.89
5.7884283 0.9281922 -1.980884 170.89
29.396111 4.7137566 1.3883724 170.89
6.2152653 0.99663687 -1.9641861 170.89
29.378042 4.7108593 2.0805566 170.89
6.7559538 1.0833379 -1.9619867 170.89
29.442385 4.7211766 2.7819276 170.89
7.3091741 1.1720484 -1.93788 170.89
29.379906 4.7111578 3.4796426 170.89
7.7554507 1.2436104 -1.8610743 170.89
8.4064054 1.3479929 -1.8096634 170.89
9.3402443 1.4977368 -1.7822741 170.89
10.385342 1.6337299 -1.727232 171.06
11.472775 1.8047953 -1.6322222 171.06
12.178226 1.9157706 -1.4416624 171.06
14.432831 2.2704453 -1.0216533 171.06
4.4490657 0.69988763 -2.0052116 171.06
24.776052 3.8975494 -1.1696167 171.06
4.7436032 0.74622166 -2.0057411 171.06
11.544874 1.8161374 -0.2713342 171.06
5.0573349 0.7955752 -1.9991096 171.06
44.214264 6.9553967 0 171.06
5.4099975 0.85105294 -1.9932934 171.06
83.09742 13.07215 1.9530027 171.06
5.7724395 0.90806907 -1.9744816 171.06
6.2125373 0.97730136 -1.9623988 171.06
6.7648358 1.0641841 -1.9636406 171.06
7.3068857 1.1494546 -1.9363606 171.06
7.7591066 1.220594 -1.8610743 171.06
8.3736496 1.3172685 -1.8017627 171.06
9.3368807 1.4687954 -1.7807928 171.06
10.383178 1.5962689 -1.725935 171.25999
11.484877 1.7656397 -1.6330571 171.25999
12.175021 1.8717399 -1.440501 171.25999
14.420949 2.2170198 -1.0202582 171.25999
4.446064 0.68352032 -2.0027711 171.25999
24.787531 3.8107374 -1.1695235 171.25999
4.748003 0.72993928 -2.0065119 171.25999
11.523476 1.7715738 -0.27068427 171.25999
5.0619226 0.77820003 -1.999837 171.25999
11.50286 1.7684044 0 171.25999
5.4092202 0.8315922 -1.9919254 171.25999
11.491857 1.7667127 0.26994154 171.25999
5.7662101 0.88647443 -1.9712805 171.25999
6.2253456 0.95706016 -1.9653776 171.25999
6.7609086 1.0393955 -1.9614354 171.25999
7.3032041 1.1227658 -1.9343345 171.25999
7.7440848 1.1905451 -1.8564632 171.25999
8.3685293 1.2865447 -1.7996836 171.25999
9.3477783 1.4370906 -1.7819037 171.25999
10.383693 1.5666785 -1.7252865 171.42
11.493679 1.734152 -1.6336138 171.42
12.078061 1.8223227 -1.4284213 171.42
13.176991 1.9881279 -1.2432656 171.42
14.363955 2.1672156 -1.0157938 171.42
4.4533753 0.6719197 -2.0052116 171.42
24.768444 3.7370319 -1.168126 171.42
4.7500229 0.71667755 -2.0065119 171.42
11.52047 1.7381941 -0.2704986 171.42
5.0622339 0.76378351 -1.9991096 171.42
43.558994 6.5721264 0 171.42
5.4133797 0.816764 -1.9926094 171.42
83.515991 12.600789 1.9609407 171.42
5.7686634 0.87036872 -1.9712805 171.42
83.287796 12.566359 3.9280076 171.42
6.2128916 0.93739331 -1.9606116 171.42
6.7618837 1.0202246 -1.9608841 171.42
7.3005714 1.1015011 -1.9328151 171.42
7.7377577 1.1674632 -1.8541576 171.42
8.3894987 1.265797 -1.803426 171.42
9.3536987 1.4112743 -1.7822741 171.42
10.261659 1.5153099 -1.7042109 171.60001
11.50103 1.6983243 -1.6338922 171.60001
12.058179 1.780597 -1.4254013 171.60001
13.129982 1.9388671 -1.2382495 171.60001
14.287795 2.109838 -1.0099342 171.60001
4.4536567 0.65765876 -2.0043981 171.60001
24.807732 3.6632872 -1.1694304 171.60001
4.7486 0.70121223 -2.0049701 171.60001
11.52983 1.7025771 -0.27059144 171.60001
5.0719805 0.74896491 -2.0020196 171.60001
43.636803 6.4437222 0 171.60001
5.4140596 0.79947877 -1.9919254 171.60001
85.48175 12.622847 2.0061555 171.60001
5.7938623 0.85556316 -1.9789633 171.60001
6.219583 0.91842812 -1.9618031 171.60001
6.7555461 0.99757224 -1.9581277 171.60001
7.2905979 1.0765818 -1.9292696 171.60001
7.7452378 1.1437172 -1.8550798 171.60001
8.4050455 1.2411492 -1.805921 171.60001
9.356142 1.3815948 -1.7819037 171.60001
8.0531149 1.1647761 -1.3368458 171.77
11.498178 1.6630586 -1.6327788 171.77
12.163675 1.7593141 -1.4372487 171.77
13.106114 1.8956254 -1.2354628 171.77
14.453934 2.0905695 -1.0212348 171.77
4.4592047 0.64496475 -2.0060251 171.77
24.812561 3.5888071 -1.1691508 171.77
4.7543125 0.68764812 -2.0065119 171.77
11.538789 1.6689324 -0.27068427 171.77
5.0668049 0.73284602 -1.9991096 171.77
11.520124 1.6662329 0 171.77
5.4108281 0.7826044 -1.9898732 171.77
11.467549 1.6586286 0.26901311 171.77
5.7832484 0.83647007 -1.9744816 171.77
6.2185016 0.89942366 -1.9606116 171.77
6.7698922 0.97917497 -1.9614354 171.77
7.2975898 1.0554994 -1.9302826 171.77
7.7389665 1.1193388 -1.8527743 171.77
8.3583517 1.2089245 -1.7951095 171.77
8.1152859 1.1737683 -1.5449091 171.77
8.0641518 1.1433913 -1.3381428 171.92999
11.498856 1.6303872 -1.6322222 171.92999
12.097736 1.7153007 -1.4288859 171.92999
12.973343 1.8394502 -1.2224579 171.92999
14.455765 2.0496383 -1.0209558 171.92999
4.4537525 0.63148379 -2.0027711 171.92999
24.826441 3.5200644 -1.1693372 171.92999
4.7635231 0.6754052 -2.0095952 171.92999
11.537465 1.6358615 -0.27054501 171.92999
5.0651426 0.71817094 -1.9976547 171.92999
5.4185748 0.76828295 -1.9919254 171.92999
5.7743058 0.818721 -1.9706402 171.92999
6.2247696 0.88259089 -1.9618031 171.92999
6.7706971 0.95999622 -1.9608841 171.92999
7.3024244 1.0353882 -1.930789 171.92999
7.743989 1.0979962 -1.8532354 171.92999
8.3481359 1.1836565 -1.7921988 171.92999
8.1068563 1.149446 -1.5426873 171.92999
10.413283 1.4449625 -1.727232 172.10001
11.513451 1.5976233 -1.6336138 172.10001
12.106708 1.6799445 -1.4293505 172.10001
13.093145 1.8168241 -1.2332333 172.10001
14.420282 2.0009794 -1.018026 172.10001
4.4592261 0.61876875 -2.0043981 172.10001
24.815008 3.443367 -1.1683123 172.10001
4.7618499 0.6607613 -2.0080535 172.10001
11.544249 1.6018969 -0.27059144 172.10001
5.0635605 0.70262712 -1.9961997 172.10001
44.48576 6.1729093 0 172.10001
5.4226918 0.75246066 -1.9926094 172.10001
11.46701 1.591179 0.26878101 172.10001
5.7860937 0.80288684 -1.9738413 172.10001
6.2254701 0.86385536 -1.9612073 172.10001
6.7678027 0.93911022 -1.9592303 172.10001
7.2939658 1.0121213 -1.92775 172.10001
7.7568512 1.076352 -1.855541 172.10001
8.3554869 1.1594197 -1.7930304 172.10001
8.1160707 1.1261979 -1.5437982 172.10001
8.3758698 1.1369281 -1.3887243 172.27
11.524028 1.5642544 -1.6344489 172.27
12.170691 1.6520315 -1.4363196 172.27
13.153729 1.7854677 -1.2384353 172.27
14.447903 1.9611368 -1.0195606 172.27
4.4556108 0.60479802 -2.0019577 172.27
24.836994 3.3713367 -1.1688714 172.27
4.778419 0.64861554 -2.0142202 172.27
11.556875 1.5687131 -0.27077714 172.27
5.0674691 0.68785071 -1.9969271 172.27
11.550081 1.5677907 0 172.27
5.4267631 0.73662072 -1.9932934 172.27
11.489511 1.5595692 0.26919881 172.27
5.7865729 0.78546077 -1.9732012 172.27
6.2242217 0.84486663 -1.9600158 172.27
6.7743692 0.91954285 -1.9603329 172.27
7.3065228 0.99177653 -1.9302826 172.27
7.7580819 1.0530705 -1.8550798 172.27
8.4073534 1.1412016 -1.803426 172.27
8.0336838 1.0904803 -1.5275048 172.27
10.451262 1.3852143 -1.7320956 172.45
11.522995 1.5272623 -1.6336138 172.45
12.106898 1.604653 -1.428189 172.45
13.171119 1.7457052 -1.23955 172.45
4.4611115 0.59127742 -2.0035846 172.45
24.819736 3.2896175 -1.167567 172.45
4.778604 0.633358 -2.0134494 172.45
11.575622 1.5342374 -0.27110207 172.45
5.0677581 0.67168266 -1.9961997 172.45
43.931805 5.8227386 0 172.45
5.423461 0.71882761 -1.9912412 172.45
11.482462 1.5218899 0.26892027 172.45
5.7927685 0.76777577 -1.9744816 172.45
6.2287383 0.82555938 -1.9606116 172.45
6.7676954 0.89699298 -1.9575765 172.45
7.3019304 0.96780068 -1.9282565 172.45
7.7613521 1.0286926 -1.8550798 172.45
8.4031401 1.1137555 -1.8017627 172.45
7.9045806 1.0476762 -1.5023241 172.45
10.437712 1.3519173 -1.7291775 172.62
11.51962 1.4920486 -1.6325005 172.62
12.101756 1.5674483 -1.4270275 172.62
13.156491 1.7040602 -1.2376921 172.62
4.4574103 0.5773344 -2.0011442 172.62
12.872369 1.6672599 -0.60530508 172.62
4.7438583 0.61443585 -1.9980326 172.62
11.601934 1.5027102 -0.2716127 172.62
5.0734239 0.65712196 -1.9976547 172.62
43.950871 5.6926217 0 172.62
5.4274335 0.70297414 -1.9919254 172.62
11.467098 1.4852458 0.26845604 172.62
5.7781096 0.74839455 -1.9687195 172.62
83.552513 10.82192 3.9289393 172.62
6.2084394 0.80413187 -1.9534626 172.62
6.7722335 0.87715584 -1.9581277 172.62
7.3124447 0.94712526 -1.9302826 172.62
7.7624402 1.0054097 -1.8546187 172.62
8.4025269 1.0883154 -1.8009311 172.62
8.1006193 1.0492115 -1.5389842 172.62
10.46713 1.3241621 -1.7333926 172.78999
11.500418 1.4548799 -1.6291603 172.78999
12.118177 1.5330307 -1.4284213 172.78999
13.163465 1.6652666 -1.237878 172.78999
4.462729 0.56456512 -2.0027711 172.78999
24.832874 3.141525 -1.1672875 172.78999
4.751153 0.6010527 -2.000345 172.78999
11.582539 1.4652687 -0.27105567 172.78999
5.0753512 0.64206594 -1.9976547 172.78999
44.124321 5.5820222 0 172.78999
5.4313602 0.68710345 -1.9926094 172.78999
11.495258 1.4542272 0.26901311 172.78999
5.7652664 0.72934484 -1.9635977 172.78999
6.2164803 0.78642642 -1.9552498 172.78999
6.7767138 0.85729969 -1.9586791 172.78999
7.3113837 0.92493904 -1.9292696 172.78999
7.7615275 0.98188525 -1.8536965 172.78999
8.4037781 1.0631343 -1.8005153 172.78999
8.0685987 1.0207318 -1.5323187 172.78999
8.0208979 0.98910576 -1.327767 172.97
11.520657 1.4206823 -1.6313871 172.97
12.103219 1.4925216 -1.4260982 172.97
12.05 1.4859588 -1.1327243 172.97
4.4681072 0.55098951 -2.0043981 172.97
24.775206 3.0551813 -1.1641198 172.97
4.7786603 0.58928567 -2.011137 172.97
11.591054 1.4293634 -0.2711485 172.97
5.0736456 0.62566209 -1.9961997 172.97
46.164318 5.6928029 0 172.97
5.4446836 0.67141706 -1.9967136 172.97
11.485879 1.4163936 0.26868814 172.97
5.7430825 0.70821446 -1.9552746 172.97
6.2037616 0.76502359 -1.9504838 172.97
6.7545686 0.83294702 -1.9515125 172.97
7.3219342 0.90291232 -1.9312955 172.97
7.7549167 0.95630598 -1.8513908 172.97
8.3973684 1.0355307 -1.7984362 172.97
7.8727999 0.97084284 -1.4945477 172.97
7.7689104 0.93601435 -1.2856157 173.13
11.548175 1.3913479 -1.6347272 173.13
12.081701 1.4556283 -1.4230783 173.13
12.627621 1.5214019 -0.88939506 173.13
4.4696283 0.53851008 -2.0043981 173.13
24.797525 2.9876568 -1.164772 173.13
4.7839518 0.57638037 -2.0126786 173.13
11.59103 1.3965112 -0.27105567 173.13
5.073523 0.61126852 -1.9954722 173.13
5.4521351 0.65688443 -1.9987657 173.13
11.452072 1.3797693 0.26780614 173.13
5.7582059 0.69376051 -1.9597563 173.13
6.2039781 0.74746805 -1.9498881 173.13
6.7625947 0.81477135 -1.9531662 173.13
7.3148227 0.88130492 -1.928763 173.13
7.7633533 0.93534482 -1.8527743 173.13
7.8384051 0.94438726 -1.4875119 173.13
10.321908 1.2107192 -1.7074533 173.31
11.536752 1.3532156 -1.6325005 173.31
12.080296 1.4169711 -1.4223814 173.31
12.974324 1.5218371 -1.2187421 173.31
12.638283 1.4824208 -0.8898136 173.31
4.4731131 0.52467853 -2.0052116 173.31
11.643435 1.3657292 -0.5467031 173.31
4.7894049 0.56177831 -2.0142202 173.31
11.579473 1.3582267 -0.27068427 173.31
5.0735683 0.59510958 -1.9947448 173.31
5.4448385 0.63865817 -1.9953455 173.31
11.488124 1.3475118 0.26854891 173.31
5.7791758 0.67787457 -1.9661585 173.31
6.1968145 0.72686195 -1.9469093 173.31
6.761302 0.79307413 -1.9520638 173.31
7.3098688 0.85741884 -1.9267371 173.31
7.7527232 0.90936393 -1.8495464 173.31
7.9720254 0.9350872 -1.7061234 173.31
7.8823261 0.92456585 -1.4952884 173.31
8.241148 0.94187438 -1.3627851 173.48
11.532845 1.3180799 -1.6313871 173.48
12.029185 1.3748062 -1.415877 173.48
12.248726 1.3998973 -1.150188 173.48
12.64659 1.4453689 -0.89009261 173.48
4.4728346 0.51119679 -2.0043981 173.48
12.423535 1.4198762 -0.58313131 173.48
4.7910504 0.5475654 -2.0142202 173.48
11.571533 1.3225014 -0.27040577 173.48
5.0827155 0.5808996 -1.9976547 173.48
5.4467096 0.62250018 -1.9953455 173.48
11.496045 1.313874 0.26864174 173.48
5.7886915 0.66158503 -1.9687195 173.48
6.1951504 0.70803887 -1.9457178 173.48
6.7655354 0.77322775 -1.952615 173.48
7.2162662 0.82474142 -1.9014119 173.48
7.747653 0.88547325 -1.8477019 173.48
7.9669905 0.91054112 -1.70446 173.48
7.62923 0.87193877 -1.4467784 173.48
8.0065727 0.89100683 -1.3235519 173.64999
11.538674 1.2840745 -1.6316655 173.64999
12.068748 1.3430636 -1.4200585 173.64999
12.870316 1.4322655 -1.2081525 173.64999
12.595303 1.4016608 -0.88618624 173.64999
4.468884 0.49731714 -2.0019577 173.64999
12.435636 1.3838924 -0.58350402 173.64999
4.7908196 0.53314358 -2.0134494 173.64999
11.569445 1.2874988 -0.2702665 173.64999
5.073307 0.56458002 -1.9932898 173.64999
11.562623 1.2867397 0 173.64999
5.4429293 0.60571319 -1.9932934 173.64999
11.470084 1.2764416 0.26794541 173.64999
5.7793303 0.64314938 -1.9648781 173.64999
6.2105064 0.69113255 -1.9498881 173.64999
6.7697105 0.75336325 -1.9531662 173.64999
7.9618797 0.88603312 -1.7027967 173.64999
7.6728044 0.85386354 -1.4545549 173.64999
10.326389 1.1181579 -1.7064805 173.82001
11.536526 1.2491934 -1.6308304 173.82001
12.102304 1.3104568 -1.423543 173.82001
12.514189 1.3550563 -1.1743399 173.82001
4.4794221 0.485039 -2.0060251 173.82001
4.7923808 0.51892662 -2.0134494 173.82001
11.575201 1.2533813 -0.27031291 173.82001
5.0860729 0.55072808 -1.9976547 173.82001
5.4428339 0.58935869 -1.9926094 173.82001
11.515566 1.2469238 0.26892027 173.82001
5.7887478 0.62681484 -1.9674391 173.82001
6.2087336 0.67229152 -1.9486966 173.82001
6.7795615 0.73410171 -1.9553714 173.82001
6.7613029 0.73212469 -1.7803577 173.82001
7.7585759 0.84011096 -1.8490853 173.82001
7.8555579 0.85061228 -1.6795106 173.82001
7.9898973 0.8651588 -1.5141739 173.82001
7.7547488 0.81505692 -1.2810763 174
11.520697 1.210874 -1.628047 174
12.078703 1.2695229 -1.4202907 174
12.963984 1.3625696 -1.2161412 174
4.4809241 0.4709641 -2.0060251 174
12.384251 1.3016373 -0.58070898 174
4.7884812 0.50328964 -2.011137 174
36.22266 3.8071551 -0.84561568 174
5.0896311 0.53494173 -1.9983821 174
5.4427896 0.57206023 -1.9919254 174
11.507495 1.2094865 0.26864174 174
5.792573 0.60882396 -1.9680792 174
6.2070174 0.6523838 -1.9475051 174
6.78757 0.71340239 -1.9570252 174
6.7135406 0.70562154 -1.7671887 174
7.7456932 0.81410515 -1.8453963 174
7.8173342 0.82163489 -1.6707784 174
7.947619 0.8353284 -1.5056568 174
8.2966042 0.85005379 -1.1721158 174.14999
12.050367 1.234657 -1.4165739 174.14999
12.997221 1.3316698 -1.218928 174.14999
4.4821415 0.45923147 -2.0060251 174.14999
12.967944 1.3286701 -0.60791373 174.14999
4.7971258 0.49150413 -2.0142202 174.14999
36.208633 3.7098658 -0.84505862 174.14999
5.0836005 0.52085578 -1.9954722 174.14999
11.563464 1.1847699 0 174.14999
5.4274421 0.55608511 -1.9857689 174.14999
11.474819 1.1756876 0.26780614 174.14999
5.7998018 0.59423631 -1.9699999 174.14999
6.216301 0.63691002 -1.9498881 174.14999
6.7894144 0.69563013 -1.9570252 174.14999
6.7904291 0.69573408 -1.7869422 174.14999
7.7206941 0.79104722 -1.8389406 174.14999
7.8583803 0.80515426 -1.6790948 174.14999
7.8402882 0.80330062 -1.4849198 174.14999
8.197403 0.81243014 -1.3533821 174.34
11.517825 1.1415112 -1.6266552 174.34
11.919974 1.1813676 -1.4007775 174.34
12.954006 1.2838486 -1.2144692 174.34
11.739677 1.1634986 -0.82494009 174.34
4.4836397 0.44436562 -2.0060251 174.34
4.8042388 0.47613961 -2.0165329 174.34
36.228699 3.5905621 -0.84524429 174.34
5.0890079 0.50436258 -1.9969271 174.34
5.3974624 0.53493297 -1.9741403 174.34
11.520439 1.1417704 0.26878101 174.34
5.7866564 0.57350528 -1.9648781 174.34
6.2107792 0.61553937 -1.9475051 174.34
6.787858 0.67273259 -1.9559227 174.34
6.8677883 0.68065435 -1.8066958 174.34
6.6833053 0.66237056 -1.59132 174.34
7.8785281 0.78082699 -1.6828372 174.34
7.9993763 0.792804 -1.5145441 174.34
8.1937466 0.78896803 -1.3524094 174.5
11.944978 1.1501706 -1.4033327 174.5
4.4848633 0.43184322 -2.0060251 174.5
12.413036 1.1952394 -0.5815475 174.5
4.794528 0.4616605 -2.0119078 174.5
12.890888 1.2412513 -0.30067262 174.5
5.0848331 0.48961374 -1.9947448 174.5
5.408289 0.52075899 -1.9775605 174.5
11.50169 1.1074867 0.26827037 174.5
5.7938933 0.55788845 -1.9667988 174.5
65.370285 6.2944427 3.0625808 174.5
6.2200756 0.59892517 -1.9498881 174.5
6.7839689 0.65322191 -1.9542688 174.5
6.9582534 0.67000359 -1.8299949 174.5
6.6676946 0.64202595 -1.58717 174.5
7.9975152 0.77007312 -1.7077867 174.5
8.1639376 0.78609776 -1.5452794 174.5
8.2022133 0.76234019 -1.3533821 174.69
12.073336 1.1221349 -1.4179677 174.69
12.517353 1.1634033 -0.87907106 174.69
4.48809 0.41713759 -2.0068386 174.69
12.52634 1.1642386 -0.58667165 174.69
4.8015451 0.44627112 -2.0142202 174.69
11.604843 1.0785916 -0.27059144 174.69
5.0957036 0.47361118 -1.9983821 174.69
11.598013 1.0779568 0 174.69
5.4249568 0.50421304 -1.9830328 174.69
11.499327 1.0687846 0.26813111 174.69
5.8070312 0.53972423 -1.9706402 174.69
6.2258296 0.57864875 -1.9510796 174.69
6.7707834 0.62929851 -1.9498587 174.69
6.9430985 0.64531404 -1.8254365 174.69
6.6852889 0.62135237 -1.5908589 174.69
7.9922333 0.74282402 -1.7061234 174.69
7.951231 0.73901314 -1.5045459 174.69
7.9724975 0.71713698 -1.3151217 174.86
10.827447 0.97394359 -1.5278423 174.86
12.068699 1.0855958 -1.4170386 174.86
12.479021 1.1225048 -0.87614131 174.86
4.4874883 0.40365565 -2.0060251 174.86
4.808362 0.43251872 -2.0165329 174.86
36.227928 3.2587514 -0.84450155 174.86
5.1007977 0.45882368 -1.999837 174.86
5.4170694 0.48727277 -1.9796126 174.86
5.8123813 0.52283162 -1.9719206 174.86
6.2294207 0.56034487 -1.9516753 174.86
6.7496433 0.60713959 -1.9432434 174.86
6.7985291 0.61153692 -1.7869422 174.86
6.7084246 0.60343188 -1.5959312 174.86
7.8093014 0.70245725 -1.6666201 174.86
7.9377289 0.71400946 -1.5015835 174.86
7.8427405 0.68339241 -1.2933974 175.02
10.832098 0.94387585 -1.5281206 175.02
12.073662 1.0520619 -1.4172708 175.02
11.873902 1.0346555 -0.83345038 175.02
4.492238 0.39143988 -2.007652 175.02
4.7985201 0.41812834 -2.0119078 175.02
13.194434 1.1497226 -0.30749661 175.02
5.0964913 0.44409263 -1.9976547 175.02
5.4390044 0.4739382 -1.9871371 175.02
5.8326945 0.50824314 -1.978323 175.02
6.2366672 0.54344404 -1.9534626 175.02
6.7532277 0.58845556 -1.9437946 175.02
6.7211828 0.58566326 -1.7661756 175.02
6.6635528 0.58064157 -1.5848644 175.02
7.7917433 0.67894864 -1.6624619 175.02
8.1472397 0.70992553 -1.5408357 175.02
8.1929407 0.68798047 -1.3507881 175.2
11.438929 0.96055365 -1.6132946 175.2
12.061071 1.0127965 -1.4154124 175.2
12.727739 1.0687782 -1.1916177 175.2
12.316471 1.034243 -0.86428273 175.2
4.5007286 0.37793672 -2.010906 175.2
4.8108439 0.40397787 -2.0165329 175.2
5.0978613 0.42807937 -1.9976547 175.2
11.60117 0.97417748 0 175.2
5.4404664 0.45684874 -1.9871371 175.2
11.508385 0.96638602 0.26813111 175.2
5.841815 0.49055091 -1.980884 175.2
6.2345386 0.52352881 -1.9522711 175.2
6.7703695 0.56852382 -1.9482049 175.2
6.6940694 0.56211668 -1.7585781 175.2
6.6750407 0.5605188 -1.58717 175.2
7.8113828 0.65594012 -1.6662043 175.2
8.1220102 0.6820243 -1.5356514 175.2
8.2028141 0.66430575 -1.3520851 175.37
11.508846 0.9320451 -1.6227584 175.37
12.067984 0.97732687 -1.415877 175.37
12.28369 0.99479586 -0.86177146 175.37
4.498188 0.36428618 -2.009279 175.37
12.527328 1.0145268 -0.58611268 175.37
4.8157005 0.38999999 -2.0180745 175.37
5.1028228 0.41325259 -1.9991096 175.37
5.4343052 0.44009775 -1.9844009 175.37
5.8507991 0.47382754 -1.9834448 175.37
6.2436762 0.50564474 -1.9546541 175.37
6.7777753 0.54889882 -1.9498587 175.37
6.7072787 0.54318964 -1.7616171 175.37
6.8105183 0.55155051 -1.6189871 175.37
7.8269439 0.63386583 -1.6691151 175.37
8.033884 0.65062487 -1.5186175 175.37
8.194911 0.63919729 -1.3504639 175.53999
11.527357 0.8991257 -1.6249851 175.53999
12.128263 0.94599593 -1.4226137 175.53999
12.551136 0.97897971 -0.88032669 175.53999
4.4901409 0.3502278 -2.0052116 175.53999
12.580077 0.98123705 -0.58844185 175.53999
4.8131566 0.37542281 -2.0165329 175.53999
36.226177 2.8256161 -0.84361953 175.53999
5.1077409 0.39840019 -2.0005646 175.53999
43.659393 3.4054015 0 175.53999
5.4468288 0.42484879 -1.9885051 175.53999
11.537837 0.89994311 0.26868814 175.53999
5.8540683 0.45661315 -1.9840851 175.53999
6.2527628 0.48771107 -1.9570371 175.53999
6.790874 0.52968335 -1.9531662 175.53999
6.7532263 0.52674687 -1.7732667 175.53999
6.7364559 0.52543879 -1.6010035 175.53999
7.8619466 0.61322623 -1.6761841 175.53999
8.0259819 0.62602085 -1.516766 175.53999
8.20858 0.61576551 -1.3524094 175.71001
11.537874 0.86551207 -1.6260985 175.71001
12.146864 0.91119528 -1.4244722 175.71001
12.673203 0.95067859 -1.1856726 175.71001
11.84571 0.88860428 -0.8306601 175.71001
4.4856944 0.33649376 -2.0027711 175.71001
4.8142495 0.36114025 -2.0165329 175.71001
5.105185 0.38296476 -1.9991096 175.71001
11.579466 0.86863202 0 175.71001
5.4480658 0.40868589 -1.9885051 175.71001
5.8459501 0.43853313 -1.980884 175.71001
6.2637019 0.46987072 -1.9600158 175.71001
6.8000846 0.5101074 -1.9553714 175.71001
6.6853018 0.50149697 -1.7550325 175.71001
6.6254268 0.49700546 -1.5742587 175.71001
8.1934195 0.6146282 -1.7464582 175.71001
10.306762 0.74241418 -1.697726 175.88
11.524589 0.83013636 -1.6238717 175.88
12.09998 0.87158287 -1.4186646 175.88
11.849707 0.8535552 -1.1083865 175.88
11.796556 0.84972662 -0.82703274 175.88
4.4903178 0.3234455 -2.0043981 175.88
4.8116183 0.34658933 -2.0149913 175.88
12.721602 0.91635936 -0.29612333 175.88
5.1081572 0.36794955 -1.999837 175.88
43.51326 3.1343367 0 175.88
5.4455051 0.39224932 -1.9871371 175.88
5.8415561 0.42077756 -1.9789633 175.88
6.2593555 0.45087239 -1.9582286 175.88
6.8034859 0.49006703 -1.9559227 175.88
6.7330756 0.48499528 -1.7671887 175.88
6.6579294 0.47958237 -1.5816365 175.88
8.0371561 0.5789305 -1.7127765 175.88
8.0942469 0.5830428 -1.528986 175.88
7.9837985 0.54988068 -1.3147974 176.06
11.491574 0.7914772 -1.6188616 176.06
12.106623 0.8338384 -1.4191293 176.06
12.694668 0.87433976 -1.1871589 176.06
4.4949574 0.30958825 -2.0060251 176.06
4.8182068 0.33185193 -2.0173037 176.06
36.212429 2.4941156 -0.8427375 176.06
5.107429 0.35177198 -1.9991096 176.06
43.500946 2.9961088 0 176.06
5.4523354 0.37552726 -1.9891891 176.06
11.581434 0.79766631 0.26952374 176.06
5.8617516 0.40372562 -1.9853655 176.06
6.2626457 0.43133703 -1.9588243 176.06
6.7992377 0.46829459 -1.9542688 176.06
6.7615895 0.46570155 -1.7742797 176.06
6.7079415 0.46200657 -1.5931644 176.06
8.0213699 0.55246842 -1.7090341 176.06
7.8627062 0.5415405 -1.4849198 176.06
8.0187798 0.52979541 -1.3203095 176.22
10.689415 0.70624244 -1.5055746 176.22
12.106922 0.79989618 -1.4188969 176.22
12.587773 0.83166575 -1.1769408 176.22
4.4866891 0.29643252 -2.0019577 176.22
4.8227978 0.31863901 -2.0188453 176.22
11.661427 0.77046263 -0.2713342 176.22
5.1158276 0.33799928 -2.0020196 176.22
51.591518 3.408617 0 176.22
5.4496121 0.36005223 -1.9878211 176.22
5.8534031 0.3867304 -1.9821644 176.22
6.2504907 0.41296571 -1.9546541 176.22
6.779417 0.44791153 -1.9482049 176.22
6.7725163 0.44745561 -1.7768122 176.22
6.6082273 0.43660116 -1.5691863 176.22
8.3156881 0.54941189 -1.7714076 176.22
7.8210425 0.51673102 -1.4767731 176.22
8.1425228 0.51228416 -1.3404124 176.39999
11.982492 0.75387448 -1.4040296 176.39999
11.980186 0.7537294 -1.1199051 176.39999
4.4967155 0.28290936 -2.0060251 176.39999
4.8219328 0.3033703 -2.0180745 176.39999
12.916973 0.81266707 -0.30048695 176.39999
5.1057081 0.32122391 -1.9976547 176.39999
51.54808 3.2431304 0 176.39999
5.4600949 0.34352005 -1.9912412 176.39999
5.8583713 0.36857748 -1.9834448 176.39999
6.2441354 0.39284769 -1.9522711 176.39999
6.7520099 0.42480046 -1.9399357 176.39999
6.7178903 0.42265382 -1.7621236 176.39999
6.8290439 0.429647 -1.6212927 176.39999
6.792521 0.42734921 -1.4466496 176.39999
7.8049736 0.49104729 -1.4734404 176.39999
10.377886 0.62383103 -1.7081017 176.56
11.531651 0.69318575 -1.6235934 176.56
11.966704 0.7193374 -1.4019389 176.56
12.612365 0.75814909 -1.1787987 176.56
4.4901929 0.26991254 -2.0027711 176.56
4.8135505 0.28935009 -2.0142202 176.56
5.0991468 0.30651772 -1.9947448 176.56
11.627012 0.69891798 0 176.56
5.4647851 0.32849681 -1.9926094 176.56
11.579971 0.69609028 0.26933807 176.56
5.8518124 0.35176164 -1.980884 176.56
6.2471137 0.37552384 -1.9528668 176.56
6.7397366 0.40513617 -1.9360768 176.56
6.784709 0.40783951 -1.7793447 176.56
6.6437263 0.39936483 -1.5770253 176.56
6.8386016 0.41107911 -1.4562135 176.56
9.2698755 0.55722678 -1.7496873 176.56
10.389647 0.59178609 -1.709723 176.74001
11.533772 0.65695459 -1.6235934 176.74001
12.079967 0.68806541 -1.4149477 176.74001
12.610716 0.71829647 -0.88325649 176.74001
4.48737 0.25559708 -2.0011442 176.74001
12.879106 0.73358369 -0.60157835 176.74001
4.8236485 0.27475122 -2.0180745 176.74001
11.616036 0.66164029 -0.27012724 176.74001
5.1075244 0.29092056 -1.9976547 176.74001
5.4582844 0.31089959 -1.9898732 176.74001
11.59807 0.66061699 0.26970944 176.74001
5.8623471 0.33391467 -1.9840851 176.74001
6.2311077 0.35491899 -1.9475051 176.74001
6.7332983 0.38352337 -1.9338717 176.74001
6.6990314 0.38157156 -1.7565521 176.74001
6.7459826 0.38424584 -1.6010035 176.74001
7.0175943 0.39971665 -1.4940534 176.74001
9.2872782 0.52899605 -1.7526498 176.74001
10.367611 0.5614897 -1.705832 176.89999
11.525674 0.62420821 -1.6222017 176.89999
12.09176 0.65486628 -1.4161093 176.89999
4.4880667 0.243065 -2.0011442 176.89999
4.8188682 0.26098058 -2.0157621 176.89999
5.1138978 0.27695879 -1.999837 176.89999
43.466301 2.3540506 0 176.89999
5.4572549 0.29555437 -1.9891891 176.89999
11.595877 0.62801027 0.26961657 176.89999
5.8575807 0.31723523 -1.9821644 176.89999
6.2396998 0.33793008 -1.9498881 176.89999
6.7266641 0.36430311 -1.9316666 176.89999
6.6846151 0.36202583 -1.7525001 176.89999
6.8500223 0.37098396 -1.6254427 176.89999
9.3260078 0.50507849 -1.7596855 176.89999
10.395039 0.52840889 -1.7100472 177.09
11.507901 0.58497876 -1.6194181 177.09
12.115687 0.61587429 -1.4186646 177.09
12.646681 0.64286619 -1.1813996 177.09
4.4943223 0.22845896 -2.0035846 177.09
12.789569 0.65012956 -0.59719956 177.09
4.816021 0.24481182 -2.0142202 177.09
11.651812 0.59229416 -0.27086997 177.09
5.1129274 0.25990441 -1.9991096 177.09
43.613689 2.2170057 0 177.09
5.4638357 0.27774206 -1.9912412 177.09
11.555962 0.58742183 0.26864174 177.09
5.8510313 0.29742429 -1.9796034 177.09
6.257947 0.31810895 -1.9552498 177.09
6.7201552 0.34160429 -1.9294615 177.09
6.7823944 0.34476808 -1.7778251 177.09
6.6296439 0.33700332 -1.5728753 177.09
7.1527615 0.36359486 -1.5223294 177.09
9.3492231 0.47524714 -1.7637589 177.09
10.378732 0.49852625 -1.707129 177.25
11.49762 0.55227029 -1.6177481 177.25
12.071724 0.5798465 -1.4133217 177.25
4.4894676 0.2156446 -2.0011442 177.25
12.817277 0.61565799 -0.59841073 177.25
4.8203726 0.2315391 -2.0157621 177.25
11.6674 0.56042546 -0.27119493 177.25
5.1043291 0.24517851 -1.9954722 177.25
43.639687 2.0961645 0 177.25
5.4608355 0.26230276 -1.9898732 177.25
11.573534 0.55591673 0.26901311 177.25
5.8499465 0.28099307 -1.9789633 177.25
6.266439 0.30099866 -1.9576328 177.25
6.7614093 0.32477379 -1.9410383 177.25
6.7504768 0.32424867 -1.7692146 177.25
6.5916815 0.31662115 -1.5636529 177.25
6.7629404 0.32484731 -1.4391648 177.25
9.3446245 0.44885448 -1.762648 177.25
10.39602 0.46662605 -1.709723 177.42999
11.485449 0.51552516 -1.6157997 177.42999
12.13302 0.54459143 -1.4202907 177.42999
4.5065503 0.20227681 -2.0084655 177.42999
12.723349 0.57108837 -0.59393871 177.42999
4.8358254 0.21705635 -2.0219288 177.42999
11.653124 0.52305126 -0.27082354 177.42999
5.1181021 0.22972636 -2.0005646 177.42999
5.4503679 0.24464013 -1.9857689 177.42999
11.603188 0.52080989 0.26966301 177.42999
5.8451219 0.2623587 -1.9770426 177.42999
6.2578173 0.28088257 -1.9546541 177.42999
6.7816024 0.30439267 -1.946551 177.42999
6.9215536 0.3106744 -1.8137869 177.42999
6.6568007 0.29879096 -1.5788698 177.42999
6.8831415 0.30895028 -1.46453 177.42999
9.3459883 0.41949531 -1.762648 177.42999
10.350035 0.43379498 -1.7019411 177.60001
11.486927 0.4814449 -1.6157997 177.60001
12.106796 0.50742513 -1.4170386 177.60001
12.803112 0.53660941 -1.1955192 177.60001
4.5034795 0.18875171 -2.0068386 177.60001
12.593246 0.52781337 -0.58778965 177.60001
4.8198533 0.2020117 -2.0149913 177.60001
11.68459 0.48972943 -0.27151987 177.60001
5.1113157 0.21422759 -1.9976547 177.60001
11.665758 0.48894012 0 177.60001
5.4416809 0.22807401 -1.9823488 177.60001
11.572719 0.48504061 0.26892027 177.60001
5.8420882 0.24485604 -1.975762 177.60001
6.2605305 0.26239398 -1.9552498 177.60001
6.7805548 0.28418943 -1.9459997 177.60001
6.8953815 0.28900209 -1.8066958 177.60001
6.8365436 0.28653607 -1.6212927 177.60001
9.2922087 0.38945892 -1.7522794 177.60001
10.30592 0.40131772 -1.6944836 177.77
11.454661 0.44605035 -1.6110678 177.77
12.145963 0.47296995 -1.4214523 177.77
14.523501 0.56555247 -1.0163518 177.77
4.5149741 0.17581537 -2.0117195 177.77
12.72851 0.49565461 -0.59403187 177.77
4.8222756 0.18778186 -2.0157621 177.77
11.705971 0.45583645 -0.2719841 177.77
5.1193752 0.19935106 -2.0005646 177.77
44.086586 1.7167541 0 177.77
5.4348221 0.21163473 -1.9796126 177.77
11.608071 0.45202419 0.26970944 177.77
5.8465757 0.22766861 -1.9770426 177.77
6.272728 0.24426322 -1.9588243 177.77
6.7871313 0.26429433 -1.9476535 177.77
6.958075 0.27095097 -1.822904 177.77
6.9851565 0.27200556 -1.6563377 177.77
9.3777723 0.36517519 -1.7682025 177.77
10.352362 0.3741762 -1.7019411 177.92999
12.167089 0.43976775 -1.4237753 177.92999
12.666778 0.45782855 -0.88632578 177.92999
4.5044918 0.16281055 -2.0068386 177.92999
12.971424 0.46883968 -0.60530508 177.92999
4.8227811 0.17431481 -2.0157621 177.92999
11.679224 0.42213437 -0.2713342 177.92999
5.1199117 0.1850543 -2.0005646 177.92999
5.3846812 0.19462416 -1.9611435 177.92999
11.629271 0.42032886 0.27017364 177.92999
5.845295 0.2112726 -1.9764023 177.92999
6.2657537 0.22646968 -1.9564413 177.92999
6.7840004 0.2452012 -1.946551 177.92999
6.8930645 0.24914321 -1.8056828 177.92999
6.8283563 0.2468044 -1.6189871 177.92999
6.9813714 0.25233498 -1.4849052 177.92999
9.3728628 0.33877316 -1.7670916 177.92999
10.402858 0.34146309 -1.7100472 178.12
12.134727 0.39830995 -1.4198261 178.12
12.580564 0.41294402 -1.1743399 178.12
4.5104852 0.14805204 -2.009279 178.12
24.556074 0.80602783 -1.145766 178.12
4.8214884 0.15826039 -2.0149913 178.12
11.696547 0.38392711 -0.27170557 178.12
5.1167731 0.16795282 -1.9991096 178.12
11.707695 0.38429302 0 178.12
5.3928108 0.17701346 -1.9638797 178.12
11.594629 0.38058177 0.26933807 178.12
5.8516445 0.19207421 -1.978323 178.12
6.2683787 0.20575307 -1.9570371 178.12
6.8059125 0.22339708 -1.952615 178.12
6.8745151 0.22564888 -1.8006178 178.12
6.8077416 0.22345711 -1.6139148 178.12
6.8316164 0.22424076 -1.4528869 178.12
9.3758993 0.30775422 -1.7674619 178.12
10.324864 0.31004208 -1.6970775 178.28
11.456199 0.34401456 -1.6107894 178.28
12.143735 0.36466038 -1.4207554 178.28
12.773038 0.38355753 -0.89358044 178.28
4.5254912 0.13589455 -2.0157869 178.28
24.530272 0.73661178 -1.1444616 178.28
4.8311348 0.14507261 -2.0188453 178.28
11.705567 0.35150281 -0.27189124 178.28
5.124671 0.15388712 -2.0020196 178.28
5.4064336 0.16234809 -1.968668 178.28
11.627624 0.34916225 0.2700808 178.28
5.8597341 0.17596009 -1.980884 178.28
6.2746539 0.1884196 -1.9588243 178.28
6.7969017 0.20410201 -1.9498587 178.28
6.9021935 0.20726378 -1.8077089 178.28
6.9094915 0.20748293 -1.637893 178.28
6.8165727 0.20469271 -1.4495603 178.28
9.3767214 0.28157061 -1.7674619 178.28
10.045646 0.27007261 -1.6510353 178.46001
11.457223 0.30802223 -1.6107894 178.46001
12.16865 0.32714862 -1.423543 178.46001
12.839995 0.34519744 -0.89818436 178.46001
4.5277224 0.12172575 -2.0166004 178.46001
24.524477 0.65932941 -1.144089 178.46001
4.8241873 0.12969607 -2.0157621 178.46001
36.095226 0.97040379 -0.83832747 178.46001
5.1195421 0.13763656 -1.999837 178.46001
51.009567 1.371369 0 178.46001
5.4463701 0.14642318 -1.9830328 178.46001
11.630662 0.31268507 0.27012724 178.46001
5.8621516 0.15760128 -1.9815241 178.46001
6.2809405 0.16886023 -1.9606116 178.46001
6.8032746 0.18290295 -1.9515125 178.46001
6.9569654 0.18703485 -1.821891 178.46001
6.9587445 0.18708268 -1.649421 178.46001
6.987318 0.18785086 -1.485737 178.46001
9.3795252 0.25216424 -1.7678322 178.46001
10.154917 0.2428606 -1.6688685 178.63
11.440267 0.27360049 -1.6082844 178.63
12.139778 0.29032969 -1.4200585 178.63
12.452349 0.29780501 -1.1620781 178.63
4.5189309 0.1080728 -2.0125329 178.63
24.540306 0.58689535 -1.1447412 178.63
4.8282409 0.11547012 -2.0173037 178.63
11.749474 0.28099534 -0.2728661 178.63
5.1236529 0.12253507 -2.001292 178.63
50.827465 1.2155678 0 178.63
5.441144 0.13012806 -1.9809806 178.63
11.653526 0.27870071 0.27063787 178.63
5.8531227 0.13998075 -1.978323 178.63
6.2756877 0.15008664 -1.9588243 178.63
6.821085 0.16313013 -1.9564739 178.63
7.075479 0.1692141 -1.8527876 178.63
6.9495411 0.16620223 -1.6471153 178.63
9.384161 0.22442757 -1.7685728 178.63
10.317425 0.21431774 -1.6954564 178.81
11.44701 0.23778193 -1.6091194 178.81
12.178365 0.25297394 -1.4244722 178.81
13.0943 0.2720001 -1.2219005 178.81
4.5265546 0.09402743 -2.0157869 178.81
24.450148 0.50788838 -1.1404555 178.81
4.834115 0.10041619 -2.0196164 178.81
36.132465 0.7505582 -0.8390702 178.81
5.125875 0.10647675 -2.0020196 178.81
50.715061 1.0534737 0 178.81
5.4358888 0.11291648 -1.9789286 178.81
11.658342 0.24217181 0.2707307 178.81
5.8554277 0.12163132 -1.9789633 178.81
6.2723107 0.13029099 -1.9576328 178.81
6.8311744 0.14189993 -1.9592303 178.81
7.2113824 0.14979775 -1.8882428 178.81
6.8644185 0.14259048 -1.6268262 178.81
6.8651152 0.14260495 -1.4595401 178.81
9.3573103 0.19437385 -1.7633885 178.81
10.420591 0.18735 -1.7123169 178.97
10.332767 0.18577105 -1.4524105 178.97
12.157177 0.21857178 -1.4219168 178.97
12.11144 0.21774949 -1.1301233 178.97
4.5194926 0.081255183 -2.0125329 178.97
24.483431 0.4401834 -1.1419461 178.97
4.8306861 0.086850077 -2.0180745 178.97
36.082443 0.64872003 -0.83786327 178.97
5.12429 0.092128724 -2.001292 178.97
50.7318 0.91209835 0 178.97
5.4530945 0.098040253 -1.9850849 178.97
11.638982 0.20925526 0.2702665 178.97
5.8538504 0.10524537 -1.978323 178.97
6.2631054 0.1126033 -1.9546541 178.97
6.8334665 0.12285772 -1.9597816 178.97
7.2272487 0.12993746 -1.8922949 178.97
6.8959227 0.12398061 -1.634204 178.97
8.3285589 0.14973773 -1.770576 178.97
9.3519211 0.16813658 -1.7622776 178.97
10.417154 0.15637147 -1.7116684 179.14
12.201468 0.18315575 -1.4270275 179.14
13.227064 0.19855091 -1.2341622 179.14
14.516912 0.21791276 -1.0152357 179.14
4.5215406 0.067872658 -2.0133464 179.14
24.482632 0.36750779 -1.141853 179.14
4.8346128 0.072572179 -2.0196164 179.14
36.076214 0.54153854 -0.8376776 179.14
5.1170893 0.076812416 -1.9983821 179.14
50.954258 0.76487231 0 179.14
5.4533615 0.081860185 -1.9850849 179.14
5.8541365 0.087876208 -1.978323 179.14
6.2538671 0.093876541 -1.9516753 179.14
6.8299561 0.10252419 -1.9586791 179.14
7.2392097 0.10866748 -1.8953339 179.14
6.8923683 0.10346106 -1.6332818 179.14
6.9440656 0.10423709 -1.476173 179.14
9.3130751 0.13979818 -1.7548716 179.14
10.40571 0.12713605 -1.709723 179.3
11.446645 0.1398541 -1.6088411 179.3
12.19796 0.14903361 -1.4265629 179.3
13.353012 0.16314594 -1.2458667 179.3
4.5125775 0.055134282 -2.009279 179.3
24.447605 0.29869869 -1.1401759 179.3
4.8329515 0.059048578 -2.0188453 179.3
36.077583 0.44079277 -0.8376776 179.3
5.1154213 0.062499769 -1.9976547 179.3
51.224178 0.62585253 0 179.3
5.462965 0.066746034 -1.9885051 179.3
5.8467808 0.071435459 -1.975762 179.3
6.2846498 0.076785304 -1.9612073 179.3
6.8321381 0.083474465 -1.9592303 179.3
7.2472234 0.088545941 -1.8973598 179.3
6.9521542 0.084940813 -1.4778363 179.3
9.3114634 0.11376666 -1.7545012 179.3
10.406075 0.092628777 -1.709723 179.49001
11.443085 0.10185964 -1.6082844 179.49001
12.194414 0.10854754 -1.4260982 179.49001
4.5145626 0.040185995 -2.0100925 179.49001
24.446463 0.21760809 -1.1400828 179.49001
4.8368115 0.043054465 -2.0203872 179.49001
36.022865 0.32065445 -0.83637774 179.49001
5.1100116 0.045486331 -1.9954722 179.49001
11.741535 0.10451627 0 179.49001
5.4650359 0.048646547 -1.9891891 179.49001
11.698384 0.10413216 0.2716127 179.49001
5.8507748 0.052080169 -1.9770426 179.49001
6.2695971 0.05580828 -1.9564413 179.49001
6.8246875 0.060749371 -1.9570252 179.49001
7.2261953 0.064323358 -1.8917884 179.49001
6.8897986 0.061328951 -1.46453 179.49001
6.9867907 0.062192317 -1.3164314 179.49001
10.412213 0.063605383 -1.7106956 179.64999
11.449265 0.069940455 -1.6091194 179.64999
12.188711 0.074457526 -1.4254013 179.64999
11.842859 0.07234481 -0.82814884 179.64999
4.5201387 0.027612299 -2.0125329 179.64999
24.393034 0.14901042 -1.1375673 179.64999
4.8239946 0.029468475 -2.0149913 179.64999
36.037617 0.220144 -0.8367027 179.64999
