# .PCD v0.7 - Point Cloud Data file format
VERSION 0.7
FIELDS x y z intensity
SIZE 4 4 4 4
TYPE F F F F
COUNT 1 1 1 1
WIDTH 1239
HEIGHT 1
VIEWPOINT 0 0 0 1 0 0 0
POINTS 1239
DATA ascii
29.287024 7.3075047 2.8161118 165.99001
6.8294258 1.7040333 -1.8426576 165.99001
6.9373436 1.7309601 -1.6941495 165.99001
6.9432578 1.7324358 -1.5210819 165.99001
6.9050856 1.7229112 -1.3408715 165.99001
9.4321642 2.3219988 -1.5959144 166.17
10.752158 2.6469536 -1.5562336 166.17
12.327435 3.0347533 -1.4846382 166.17
12.487329 3.0741158 -1.1997923 166.17
12.326962 3.034637 -0.88772088 166.17
4.3554702 1.0722245 -1.9970769 166.17
12.877124 3.1700752 -0.61844158 166.17
4.6215119 1.1377183 -1.9880116 166.17
13.120625 3.23002 -0.3137171 166.17
4.8698063 1.1988432 -1.9583708 166.17
5.1808925 1.2754259 -1.9419904 166.17
12.250835 3.0158961 0.29292023 166.17
5.5673122 1.3705543 -1.937348 166.17
29.39546 7.2365398 1.4117573 166.17
5.915669 1.4563124 -1.9010366 166.17
29.475834 7.2563262 2.1226895 166.17
6.3788147 1.5703291 -1.8837057 166.17
6.8422604 1.6844196 -1.8446835 166.17
6.9581642 1.7129526 -1.5231611 166.17
6.9639006 1.7143648 -1.35124 166.17
9.7013273 2.3595479 -1.6403353 166.33
11.236767 2.7329962 -1.6252635 166.33
11.847658 2.8815765 -1.1375546 166.33
12.414872 3.0195336 -0.8934409 166.33
4.3619981 1.0609211 -1.9987038 166.33
12.763629 3.104358 -0.61257207 166.33
4.6192913 1.1234998 -1.9856991 166.33
4.8930478 1.1900826 -1.9663731 166.33
12.28389 2.9876764 0 166.33
5.1698246 1.2574 -1.9365181 166.33
12.222296 2.9726956 0.2920382 166.33
5.5711179 1.3550022 -1.937348 166.33
29.596088 7.1983333 1.4204218 166.33
5.9178576 1.4393358 -1.9004409 166.33
29.509554 7.1772866 2.123666 166.33
6.3663621 1.5484208 -1.8787442 166.33
29.527235 7.1815872 2.8350618 166.33
6.8788977 1.6730791 -1.8532941 166.33
29.391043 7.1484628 3.5372534 166.33
6.966403 1.6943622 -1.6987606 166.33
8.1186552 1.9746119 -1.7759817 166.33
8.7466335 2.1273482 -1.6959932 166.33
9.3786087 2.2498736 -1.5845659 166.50999
11.27226 2.7041495 -1.6291603 166.50999
12.304662 2.9518166 -1.4797599 166.50999
11.854716 2.8438773 -1.1373688 166.50999
12.51354 3.0019255 -0.89985853 166.50999
4.3617558 1.0463599 -1.9970769 166.50999
12.577105 3.017174 -0.60316223 166.50999
4.6335654 1.1115654 -1.9903241 166.50999
4.8967624 1.1747048 -1.9663731 166.50999
29.639076 7.1102419 0 166.50999
5.1755767 1.2415907 -1.9372021 166.50999
12.249073 2.9384813 0.292456 166.50999
5.5735049 1.3370514 -1.9367077 166.50999
5.9353456 1.4238548 -1.9046111 166.50999
29.535835 7.085475 2.123945 166.50999
6.3711953 1.5284127 -1.8787442 166.50999
29.747166 7.1361718 2.8540118 166.50999
6.9010525 1.6555223 -1.8578526 166.50999
7.0095401 1.6815479 -1.707983 166.50999
8.1362324 1.9518348 -1.7784766 166.50999
8.8106098 2.1136138 -1.7071023 166.50999
9.4428558 2.2356772 -1.5942931 166.67999
11.305288 2.6766241 -1.6327788 166.67999
12.338494 2.9212446 -1.4827799 166.67999
12.4525 2.9482362 -0.89483607 166.67999
4.371953 1.0350975 -2.0003309 166.67999
13.157562 3.1151657 -0.63055325 166.67999
4.6422305 1.099088 -1.9926367 166.67999
13.23252 3.1329126 -0.31571323 166.67999
4.9129162 1.1631751 -1.9714655 166.67999
43.575352 10.316838 0 166.67999
5.1956973 1.230126 -1.9433584 166.67999
12.230498 2.8956757 0.2918061 166.67999
5.5848227 1.3222547 -1.9392687 166.67999
83.327339 19.728462 3.9933176 166.67999
5.9432602 1.4071178 -1.9058026 166.67999
6.3738313 1.5090593 -1.8781929 166.67999
6.9096994 1.6359307 -1.8588656 166.67999
6.9917736 1.6553624 -1.7024496 166.67999
8.1267586 1.9240799 -1.7751501 166.67999
8.774766 2.0775011 -1.6989557 166.67999
9.447526 2.207201 -1.5939689 166.85001
11.31318 2.6430688 -1.6327788 166.85001
12.345174 2.8841708 -1.4825475 166.85001
12.720724 2.9719098 -1.2187421 166.85001
12.465078 2.9121838 -0.89511508 166.85001
4.3767843 1.0225368 -2.0011442 166.85001
13.059748 3.0511148 -0.62542909 166.85001
4.6454711 1.0853094 -1.9926367 166.85001
13.031478 3.0445104 -0.3106997 166.85001
4.9036469 1.1456263 -1.9663731 166.85001
43.644722 10.196603 0 166.85001
5.1993246 1.2147046 -1.9433584 166.85001
12.256559 2.8634682 0.2922239 166.85001
5.5813408 1.3039541 -1.9367077 166.85001
5.9511271 1.3903464 -1.9069941 166.85001
6.3764086 1.4897038 -1.8776417 166.85001
6.9239435 1.6176229 -1.8613981 166.85001
7.1956382 1.6810982 -1.750867 166.85001
8.1400518 1.9017391 -1.7768133 166.85001
8.7483549 2.0438554 -1.6926605 166.85001
10.011737 2.3077109 -1.6879988 167.02
11.315183 2.6081557 -1.6319438 167.02
12.336255 2.8435137 -1.4804568 167.02
12.752771 2.9395208 -1.2209716 167.02
12.481441 2.8769789 -0.8956731 167.02
4.3762379 1.0087253 -1.9995173 167.02
12.949989 2.9849796 -0.61974591 167.02
4.6450744 1.0706922 -1.9910949 167.02
12.982002 2.9923587 -0.30930704 167.02
4.8997631 1.129398 -1.9634632 167.02
44.976646 10.367142 0 167.02
5.2029057 1.1992726 -1.9433584 167.02
12.268899 2.8279879 0.29231673 167.02
5.5870318 1.2878139 -1.937348 167.02
5.942203 1.3696811 -1.9028239 167.02
6.3882942 1.4725053 -1.8798468 167.02
6.9419103 1.6001141 -1.8649436 167.02
7.0943966 1.6352624 -1.7250444 167.02
8.1265955 1.8731847 -1.7726551 167.02
8.8348198 2.0364308 -1.7082132 167.02
10.057427 2.2849915 -1.6944836 167.2
11.280831 2.562942 -1.6258202 167.2
12.331568 2.8016634 -1.4788307 167.2
12.802723 2.9087071 -1.2248731 167.2
12.433996 2.8249347 -0.89162725 167.2
4.3811669 0.99537677 -2.0003309 167.2
13.191136 2.9969528 -0.63083279 167.2
4.6430163 1.0548674 -1.9887824 167.2
4.9087367 1.1152377 -1.9656457 167.2
12.271279 2.7879663 0 167.2
5.2048149 1.1825049 -1.9426744 167.2
12.252376 2.7836714 0.29171327 167.2
5.5910497 1.2702553 -1.937348 167.2
5.9539237 1.3526983 -1.9052069 167.2
6.3816404 1.4498731 -1.8765391 167.2
6.9619966 1.5817268 -1.8689957 167.2
8.1419783 1.849812 -1.7747341 167.2
8.8354235 2.007359 -1.7071023 167.2
10.158526 2.2762852 -1.7103715 167.37
11.38695 2.5515456 -1.6400158 167.37
12.322381 2.7611535 -1.47674 167.37
12.962864 2.9046705 -1.2393641 167.37
12.527985 2.8072245 -0.89776582 167.37
4.3876672 0.98317224 -2.0019577 167.37
12.835417 2.8761127 -0.61341059 167.37
4.6569304 1.0435078 -1.9934075 167.37
34.737011 7.783741 -0.82648998 167.37
4.9083886 1.0998535 -1.9641907 167.37
43.82914 9.8210716 0 167.37
5.2174702 1.1691115 -1.9460946 167.37
12.282043 2.7521148 0.2922239 167.37
5.5873985 1.2520037 -1.934787 167.37
5.956048 1.3346093 -1.9046111 167.37
6.3990459 1.4338746 -1.880398 167.37
6.962883 1.5602171 -1.8679827 167.37
7.6473746 1.7135955 -1.8569243 167.37
8.1665201 1.8299237 -1.7788924 167.37
8.8240795 1.9772673 -1.7037696 167.37
10.248099 2.2644439 -1.7243139 167.53999
11.349991 2.5079203 -1.6336138 167.53999
12.396468 2.7391524 -1.4846382 167.53999
12.708924 2.8081934 -1.2142833 167.53999
12.569377 2.777359 -0.90013754 167.53999
4.3905649 0.97014946 -2.0019577 167.53999
4.6527982 1.0280931 -1.9903241 167.53999
34.720905 7.6720123 -0.82556152 167.53999
4.9189067 1.0868931 -1.9671006 167.53999
12.338383 2.7263179 0 167.53999
5.2099051 1.1511928 -1.9419904 167.53999
12.288202 2.7152297 0.29217747 167.53999
5.5910888 1.23542 -1.934787 167.53999
5.9618464 1.3173435 -1.9052069 167.53999
6.4182901 1.4182004 -1.8848082 167.53999
6.9693708 1.5399684 -1.8684891 167.53999
7.644824 1.6892182 -1.8550798 167.53999
8.1776447 1.8069514 -1.7801399 167.53999
8.8299074 1.951077 -1.7037696 167.53999
10.277912 2.2390683 -1.7282047 167.71001
11.258689 2.4527328 -1.6194181 167.71001
12.38319 2.6977081 -1.482083 167.71001
12.886477 2.8073504 -1.2304466 167.71001
13.082458 2.8500454 -0.93627137 167.71001
4.3898535 0.95634031 -2.0003309 167.71001
12.813217 2.7913907 -0.61154723 167.71001
4.6630406 1.0158548 -1.9934075 167.71001
12.391932 2.6996126 -0.29445213 167.71001
4.9111881 1.0699143 -1.9627358 167.71001
12.30538 2.680757 0 167.71001
5.2151341 1.1361297 -1.9426744 167.71001
12.292296 2.6779068 0.29208463 167.71001
5.5928783 1.2184222 -1.9341469 167.71001
5.9526701 1.2968037 -1.9010366 167.71001
6.4337406 1.4016061 -1.8881159 167.71001
6.9682379 1.5180476 -1.8669697 167.71001
7.6498027 1.6665281 -1.8550798 167.71001
8.1715012 1.7801814 -1.777645 167.71001
8.843339 1.926543 -1.7052507 167.71001
10.276793 2.2069058 -1.7269077 167.88
11.354991 2.4384453 -1.6322222 167.88
12.354239 2.6530302 -1.4776692 167.88
12.682531 2.7235298 -1.2101961 167.88
13.125969 2.8187566 -0.93878263 167.88
2.6009476 0.55854452 -1.1844171 167.88
13.350786 2.8670354 -0.63679546 167.88
4.6606212 1.0008523 -1.9910949 167.88
34.738453 7.4599633 -0.82491165 167.88
4.914341 1.0553378 -1.9627358 167.88
43.682129 9.3805866 0 167.88
5.2148075 1.119862 -1.9413064 167.88
12.308007 2.6431024 0.29227033 167.88
5.5909114 1.200629 -1.9322262 167.88
83.665581 17.966896 3.9906158 167.88
5.9620919 1.2803386 -1.9028239 167.88
6.4209538 1.3788778 -1.8831544 167.88
6.9613614 1.4949284 -1.8639307 167.88
7.6490054 1.6425976 -1.8536965 167.88
8.2035246 1.7616787 -1.7834665 167.88
8.8509378 1.9007086 -1.7056211 167.88
10.299122 2.1778758 -1.7295016 168.06
11.387786 2.4080873 -1.6358407 168.06
12.414987 2.6253016 -1.4839413 168.06
13.497825 2.8542809 -0.96473205 168.06
2.6044769 0.55074871 -1.1852306 168.06
12.92776 2.7337337 -0.61620557 168.06
4.6691594 0.98735112 -1.9934075 168.06
4.9048734 1.0371958 -1.9576434 168.06
12.311743 2.6034694 0 168.06
5.2182999 1.1034737 -1.9413064 168.06
12.282995 2.5973904 0.29148117 168.06
5.5965095 1.1834507 -1.9328663 168.06
5.9586129 1.2600219 -1.9004409 168.06
6.4327779 1.3602899 -1.8853595 168.06
6.9054494 1.4602422 -1.8477225 168.06
7.2371492 1.5303842 -1.7527115 168.06
8.8953238 1.8810256 -1.7130272 168.06
10.334143 2.1551504 -1.7343652 168.22
12.416435 2.5894055 -1.4832444 168.22
12.832979 2.6762743 -1.2230152 168.22
12.583876 2.6243246 -0.89888191 168.22
4.4160781 0.9209581 -2.0084655 168.22
13.379299 2.7902074 -0.63735443 168.22
4.6682849 0.97355503 -1.9918658 168.22
4.9150457 1.0250161 -1.9605533 168.22
12.34246 2.5739779 0 168.22
5.2305598 1.0908155 -1.9447266 168.22
12.30586 2.5663452 0.29185253 168.22
5.5868082 1.16511 -1.9283848 168.22
5.9714532 1.2453264 -1.9034196 168.22
6.4365516 1.3423209 -1.8853595 168.22
6.9000297 1.4389778 -1.84519 168.22
6.9861073 1.4569291 -1.6909217 168.22
6.9575334 1.4509699 -1.5106864 168.22
8.9005423 1.8561778 -1.7130272 168.22
10.379899 2.1287992 -1.7408501 168.41
11.458548 2.350018 -1.6439127 168.41
12.419116 2.5470195 -1.4825475 168.41
4.3886805 0.90006852 -1.9946365 168.41
4.6696801 0.95769829 -1.9910949 168.41
34.733501 7.1234465 -0.82319403 168.41
4.9202428 1.0090859 -1.9612807 168.41
12.323498 2.5274093 0 168.41
5.2249432 1.0715765 -1.9413064 168.41
12.306467 2.5239165 0.29166684 168.41
5.5924973 1.1469576 -1.9290249 168.41
5.9699392 1.2243668 -1.9016324 168.41
6.4466171 1.3221279 -1.8870133 168.41
6.91045 1.4172548 -1.8467096 168.41
7.667685 1.5725551 -1.8546187 168.41
8.9316778 1.8317857 -1.7178411 168.41
10.387737 2.1001961 -1.7411743 168.57001
11.467007 2.318403 -1.644191 168.57001
12.404762 2.5079987 -1.4799922 168.57001
12.778821 2.583626 -1.216327 168.57001
12.617272 2.5509639 -0.90013754 168.57001
4.3965497 0.88889575 -1.9970769 168.57001
4.6705275 0.94428867 -1.9903241 168.57001
12.350703 2.4970691 -0.29254887 168.57001
4.9285197 0.99644959 -1.9634632 168.57001
12.354032 2.4977419 0 168.57001
5.2260728 1.056609 -1.9406223 168.57001
12.299748 2.4867671 0.2913419 168.57001
5.6049643 1.1332134 -1.9322262 168.57001
5.967721 1.2065557 -1.8998451 168.57001
6.4521685 1.3045014 -1.8875647 168.57001
6.899209 1.3948842 -1.8426576 168.57001
6.9815245 1.4115268 -1.6876938 168.57001
8.1781254 1.6534559 -1.7734867 168.57001
8.6304541 1.744908 -1.6589627 168.57001
10.388117 2.0682096 -1.7402016 168.74001
11.477719 2.2851429 -1.6447477 168.74001
12.390718 2.4669154 -1.4774369 168.74001
12.798148 2.548032 -1.2174417 168.74001
12.575867 2.5037773 -0.89664972 168.74001
4.4081273 0.87763083 -2.0011442 168.74001
4.6714983 0.93006647 -1.9895532 168.74001
4.9351087 0.98254961 -1.9649181 168.74001
12.326081 2.4540465 0 168.74001
5.2291851 1.0410984 -1.9406223 168.74001
12.324721 2.4537759 0.2917597 168.74001
5.6008687 1.1150984 -1.9296652 168.74001
5.976892 1.1899623 -1.9016324 168.74001
6.4522395 1.284601 -1.8864621 168.74001
6.918498 1.3774301 -1.8467096 168.74001
7.634625 1.5200065 -1.8444741 168.74001
8.0813074 1.6089382 -1.751448 168.74001
10.442982 2.0450461 -1.7483076 168.92
11.484842 2.2490735 -1.6447477 168.92
12.378913 2.424159 -1.4751139 168.92
13.085546 2.5625389 -1.2440088 168.92
4.4180346 0.86518252 -2.0043981 168.92
13.132025 2.5716407 -0.6240316 168.92
4.6780195 0.91609526 -1.9910949 168.92
13.301692 2.6048665 -0.31469196 168.92
4.9235449 0.96417642 -1.9590983 168.92
12.341581 2.4168484 0 168.92
5.2287412 1.0239429 -1.9392542 168.92
12.318634 2.4123547 0.29143474 168.92
5.6117821 1.0989537 -1.9322262 168.92
5.9787273 1.1708125 -1.9010366 168.92
6.4354901 1.2602602 -1.880398 168.92
6.8962088 1.3504827 -1.8396186 168.92
7.66992 1.5019983 -1.8518519 168.92
8.1208792 1.5903094 -1.7589329 168.92
10.431211 2.0125113 -1.7453895 169.08
11.483299 2.2154922 -1.6436343 169.08
12.393436 2.3910866 -1.4760431 169.08
12.975333 2.5033529 -1.2328618 169.08
12.731551 2.4563196 -0.90669465 169.08
4.4258156 0.85388005 -2.0068386 169.08
4.6787472 0.90267861 -1.9903241 169.08
4.9170718 0.94865894 -1.9554609 169.08
12.340426 2.3808594 0 169.08
5.2315803 1.0093375 -1.9392542 169.08
12.307653 2.3745363 0.29101694 169.08
5.6055269 1.0814837 -1.9290249 169.08
5.9894724 1.1555589 -1.9034196 169.08
6.4559736 1.2455618 -1.8853595 169.08
6.966445 1.3440479 -1.8573462 169.08
7.6110253 1.4684079 -1.8366351 169.08
8.2424612 1.5902319 -1.7842982 169.08
8.7479248 1.6877519 -1.6785889 169.08
10.464974 1.9830531 -1.7499288 169.27
11.500313 2.1792438 -1.6450261 169.27
12.372022 2.3444276 -1.4725585 169.27
12.875954 2.4399199 -1.2226436 169.27
12.935652 2.4512322 -0.92064595 169.27
4.421442 0.83783811 -2.0035846 169.27
4.6780887 0.88647115 -1.9887824 169.27
34.716671 6.5786114 -0.82036233 169.27
4.9110384 0.93061382 -1.9518236 169.27
12.358079 2.3417857 0 169.27
5.2275124 0.99058384 -1.9365181 169.27
12.331176 2.3366876 0.2913883 169.27
5.616529 1.0643003 -1.9315859 169.27
6.0045261 1.1378236 -1.9069941 169.27
6.4695129 1.2259359 -1.8881159 169.27
7.0183883 1.3299446 -1.8700087 169.27
7.6789517 1.4551177 -1.8518519 169.27
8.243845 1.5621617 -1.7834665 169.27
8.7920942 1.6660519 -1.685995 169.27
10.451071 1.9502014 -1.7466865 169.42999
11.506353 2.1471205 -1.6450261 169.42999
12.372662 2.3087761 -1.4718616 169.42999
12.765263 2.3820367 -1.2114966 169.42999
12.928717 2.4125378 -0.91966933 169.42999
4.4219685 0.82515275 -2.0027711 169.42999
13.317401 2.4850674 -0.63176441 169.42999
4.6769176 0.87272698 -1.9872407 169.42999
34.685768 6.4724693 -0.81920177 169.42999
4.9191122 0.91792125 -1.954006 169.42999
12.346876 2.3039644 0 169.42999
5.2394958 0.97770578 -1.9399383 169.42999
12.331757 2.3011432 0.29124904 169.42999
5.6138911 1.0475692 -1.9296652 169.42999
6.0076804 1.1210513 -1.9069941 169.42999
6.459682 1.2053962 -1.884257 169.42999
7.0696239 1.3192133 -1.8826712 169.42999
7.6848984 1.4340253 -1.8523132 169.42999
8.2481756 1.5391345 -1.7834665 169.42999
8.8102369 1.644017 -1.6885871 169.42999
10.482381 1.9219859 -1.7509016 169.61
11.50525 2.1095328 -1.6439127 169.61
12.366177 2.2673872 -1.4702356 169.61
12.929379 2.3706527 -1.2263594 169.61
12.89306 2.3639932 -0.91660005 169.61
4.4227419 0.81092715 -2.0019577 169.61
21.753328 3.9885585 -1.031357 169.61
4.6814513 0.85836256 -1.9880116 169.61
34.745262 6.3706808 -0.82013023 169.61
4.9329662 0.90447885 -1.9583708 169.61
12.357987 2.2658856 0 169.61
5.2425413 0.96124059 -1.9399383 169.61
12.321225 2.259145 0.29083127 169.61
5.620882 1.0306108 -1.9309456 169.61
5.9679809 1.0942527 -1.8932918 169.61
6.4634371 1.1850966 -1.884257 169.61
7.0680242 1.2959501 -1.8811518 169.61
7.6970224 1.4112793 -1.8541576 169.61
8.2606668 1.5146258 -1.7851298 169.61
8.8598223 1.6244832 -1.6971041 169.61
10.532377 1.9007676 -1.7583591 169.77
11.511096 2.0773959 -1.6439127 169.77
12.362686 2.2310815 -1.469074 169.77
12.916352 2.3310013 -1.2245015 169.77
4.4213929 0.7979244 -2.0003309 169.77
4.6838303 0.84528613 -1.9880116 169.77
4.9336395 0.890369 -1.9576434 169.77
12.376076 2.2334981 0 169.77
5.2489042 0.94726449 -1.9413064 169.77
12.331421 2.2254391 0.2909241 169.77
5.6200089 1.0142374 -1.9296652 169.77
5.9785285 1.0789391 -1.8956748 169.77
6.4799647 1.1694328 -1.8881159 169.77
7.0544791 1.2731148 -1.8765932 169.77
7.7047639 1.390471 -1.8550798 169.77
8.2533131 1.4894671 -1.7826349 169.77
9.0055189 1.625217 -1.7241364 169.77
10.537971 1.8695091 -1.7583591 169.94
11.501608 2.0404651 -1.6416858 169.94
12.339912 2.1891861 -1.4655895 169.94
13.050659 2.3152776 -1.2365774 169.94
12.780736 2.2673912 -0.90767121 169.94
4.4237413 0.78480238 -2.0003309 169.94
4.6808662 0.83041817 -1.9856991 169.94
4.923419 0.87344873 -1.952551 169.94
12.384618 2.1971171 0 169.94
5.2479906 0.93102998 -1.9399383 169.94
12.326158 2.1867459 0.29064557 169.94
5.6229935 0.997558 -1.9296652 169.94
6.0174208 1.0675322 -1.9069941 169.94
6.4644766 1.146843 -1.8826032 169.94
7.0791812 1.2558959 -1.8821647 169.94
7.7146039 1.3686243 -1.8564632 169.94
8.2673273 1.4666812 -1.784714 169.94
6.8583565 1.21672 -1.312358 169.94
10.551569 1.8377484 -1.7596561 170.12
10.602622 1.8466402 -1.5125333 170.12
12.248878 2.1333659 -1.4539745 170.12
13.079449 2.2780249 -1.2386211 170.12
4.4279847 0.77121443 -2.0011442 170.12
4.6816339 0.81539202 -1.9849281 170.12
34.715893 6.0464067 -0.81813407 170.12
4.9187975 0.85669839 -1.9496411 170.12
12.387519 2.1575127 0 170.12
5.2527413 0.91486084 -1.9406223 170.12
12.342815 2.1497266 0.29087767 170.12
5.6372995 0.98183864 -1.9335066 170.12
6.0282683 1.0499331 -1.9093771 170.12
6.4813056 1.1288377 -1.8864621 170.12
7.0926223 1.2353097 -1.8846973 170.12
7.7284517 1.3460511 -1.8587688 170.12
8.2661123 1.4396944 -1.7834665 170.12
9.0133419 1.5698382 -1.723766 170.12
10.541098 1.8056102 -1.7570622 170.28
10.617497 1.8186969 -1.513925 170.28
12.237167 2.0961339 -1.4518837 170.28
13.181934 2.2579653 -1.2477244 170.28
4.4265194 0.7582292 -1.9995173 170.28
21.772882 3.7295296 -1.0301459 170.28
4.6893497 0.80325001 -1.9872407 170.28
34.675488 5.9396482 -0.81678784 170.28
4.9376969 0.84579003 -1.9561884 170.28
12.41715 2.1269639 0 170.28
5.2589803 0.90082347 -1.9419904 170.28
12.34877 2.1152508 0.29087767 170.28
5.6418867 0.96641243 -1.9341469 170.28
6.0180044 1.0308385 -1.9052069 170.28
6.4654832 1.1074883 -1.8809493 170.28
7.0960441 1.2154986 -1.8846973 170.28
7.7283444 1.3238068 -1.8578465 170.28
8.2835979 1.4189175 -1.7863772 170.28
9.0157537 1.5443302 -1.7233957 170.28
10.537296 1.7690109 -1.755441 170.47
12.320454 2.0683692 -1.4609435 170.47
13.173639 2.2116027 -1.2462382 170.47
4.4344153 0.74445367 -2.0019577 170.47
21.783159 3.6569769 -1.0300528 170.47
4.6956277 0.78830624 -1.9887824 170.47
12.479944 2.0951445 -0.29380223 170.47
4.9276133 0.82725227 -1.9510961 170.47
12.392577 2.0804772 0 170.47
5.2434044 0.8802675 -1.93515 170.47
12.355717 2.0742891 0.29087767 170.47
5.6375861 0.94644314 -1.9315859 170.47
6.0157409 1.0099281 -1.9034196 170.47
6.4710164 1.0863602 -1.8815006 170.47
7.1095762 1.1935623 -1.8872298 170.47
7.7422881 1.2997824 -1.8601521 170.47
6.8490024 1.1498169 -1.476173 170.47
9.0227633 1.5147499 -1.723766 170.47
10.519132 1.7338867 -1.7515501 170.64
10.648257 1.7551707 -1.5167085 170.64
12.338297 2.0337429 -1.4623373 170.64
13.176213 2.1718583 -1.2458667 170.64
12.844886 2.117245 -0.91032201 170.64
4.4366045 0.73129326 -2.0019577 170.64
13.828176 2.2793224 -0.65356547 170.64
4.696125 0.77407044 -1.9880116 170.64
34.725933 5.7239361 -0.8171128 170.64
4.9300461 0.81262809 -1.9510961 170.64
12.420403 2.0472767 0 170.64
5.2459931 0.86470616 -1.93515 170.64
12.34998 2.0356688 0.29059914 170.64
5.6441083 0.93032825 -1.9328663 170.64
6.0187111 0.99207461 -1.9034196 170.64
6.4855928 1.0690316 -1.8848082 170.64
7.0920873 1.1690011 -1.8816583 170.64
7.7499509 1.2774379 -1.8610743 170.64
6.8330812 1.1263087 -1.4720148 170.64
9.0020084 1.4838166 -1.7189521 170.64
9.7059813 1.5702876 -1.6153688 170.81
10.631911 1.7200897 -1.5136466 170.81
12.328588 1.9945875 -1.4604789 170.81
13.168839 2.1305277 -1.2445662 170.81
4.4369512 0.71783459 -2.0011442 170.81
21.767006 3.5215871 -1.0282825 170.81
4.6947575 0.7595439 -1.9864699 170.81
34.709209 5.6154485 -0.81632364 170.81
4.937953 0.79888946 -1.9532785 170.81
12.412602 2.0081797 0 170.81
5.2707987 0.85273904 -1.9433584 170.81
12.375704 2.0022099 0.29106337 170.81
5.6393623 0.91236734 -1.9303055 170.81
5.9933577 0.96963865 -1.8944833 170.81
6.5039186 1.0522401 -1.8892184 170.81
7.0649648 1.1430092 -1.8735542 170.81
7.7575493 1.2550594 -1.8619965 170.81
6.84798 1.1079043 -1.4745097 170.81
6.7809706 1.0970631 -1.2942132 170.81
10.648705 1.6903996 -1.5153167 170.98
12.332491 1.9576877 -1.4602466 170.98
12.867076 2.0425489 -0.91101956 170.98
4.4354525 0.70409381 -1.9995173 170.98
21.757627 3.4538555 -1.0273509 170.98
4.6915221 0.74474293 -1.9841573 170.98
34.682274 5.5055432 -0.81530237 170.98
4.9513412 0.7859872 -1.9576434 170.98
12.446159 1.9757317 0 170.98
5.2621689 0.83532864 -1.9392542 170.98
50.438686 8.006752 1.1857002 170.98
5.6476583 0.89652222 -1.9322262 170.98
5.9943223 0.95155245 -1.8938876 170.98
6.4975185 1.031431 -1.8864621 170.98
7.116097 1.1296254 -1.8862168 170.98
7.7477846 1.229901 -1.8587688 170.98
6.860898 1.0891145 -1.4765888 170.98
9.0048313 1.4294474 -1.7178411 170.98
9.7268295 1.5144856 -1.6173142 171.14999
10.63019 1.6551405 -1.5119766 171.14999
12.344133 1.9220047 -1.4609435 171.14999
4.4465485 0.69233596 -2.0035846 171.14999
21.763832 3.3886695 -1.0271646 171.14999
4.6900644 0.73025185 -1.9826157 171.14999
34.70636 5.4038453 -0.81548804 171.14999
4.9370842 0.7687133 -1.9510961 171.14999
12.489514 1.9446409 0 171.14999
5.270195 0.82057929 -1.9413064 171.14999
12.357732 1.9241221 0.29036704 171.14999
5.6409326 0.87830383 -1.9290249 171.14999
5.9971194 0.93376273 -1.8938876 171.14999
6.506249 1.0130352 -1.8881159 171.14999
7.7513995 1.2069075 -1.8587688 171.14999
9.0090332 1.4027233 -1.7178411 171.14999
12.339963 1.8838716 -1.459782 171.32001
13.175469 2.0114236 -1.2434515 171.32001
4.4413586 0.67803681 -2.0003309 171.32001
21.795515 3.3273966 -1.0281894 171.32001
4.6903858 0.71605444 -1.9818448 171.32001
34.710381 5.2990355 -0.81520951 171.32001
4.9467101 0.7551859 -1.954006 171.32001
12.412191 1.8948983 0 171.32001
5.2614594 0.8032369 -1.9372021 171.32001
12.381176 1.8901633 0.29078484 171.32001
5.6435137 0.86156297 -1.9290249 171.32001
6.0243988 0.91971052 -1.9016324 171.32001
6.5073256 0.99343622 -1.8875647 171.32001
6.7344089 1.0281037 -1.7833967 171.32001
6.8661385 1.0482141 -1.645732 171.32001
8.3079872 1.268333 -1.7863772 171.32001
8.9937258 1.3730208 -1.7141382 171.32001
9.7005119 1.4514822 -1.611478 171.49001
11.566304 1.7306595 -1.6436343 171.49001
12.33764 1.8460741 -1.4588528 171.49001
13.205012 1.9758586 -1.2456808 171.49001
14.627048 2.188637 -1.0342095 171.49001
4.4415441 0.66458571 -1.9995173 171.49001
21.757872 3.2556181 -1.0259534 171.49001
4.694315 0.70240772 -1.9826157 171.49001
34.660694 5.1862602 -0.81367761 171.49001
4.9544563 0.74133253 -1.9561884 171.49001
12.467209 1.8654613 0 171.49001
5.2786889 0.78984725 -1.9426744 171.49001
12.378819 1.8522358 0.29059914 171.49001
5.6479192 0.84509498 -1.9296652 171.49001
6.0327659 0.90267938 -1.9034196 171.49001
6.5064421 0.97355527 -1.8864621 171.49001
6.7737861 1.0135578 -1.7930202 171.49001
6.7716479 1.0132378 -1.4553819 171.49001
6.7935133 1.0165095 -1.2942132 171.49001
10.781397 1.5824456 -1.5314608 171.64999
12.338817 1.8110368 -1.4583882 171.64999
13.200627 1.9375297 -1.2447519 171.64999
14.617311 2.1454644 -1.0330933 171.64999
4.4361515 0.6511187 -1.9962634 171.64999
21.7649 3.1945558 -1.0258602 171.64999
4.6999102 0.68983203 -1.9841573 171.64999
34.66713 5.0882878 -0.81349194 171.64999
4.941761 0.72532982 -1.9503686 171.64999
12.401133 1.8201834 0 171.64999
5.2715769 0.77373868 -1.9392542 171.64999
12.366139 1.8150471 0.29018134 171.64999
5.6540065 0.82987005 -1.9309456 171.64999
6.046597 0.88749272 -1.9069941 171.64999
6.5110373 0.95566124 -1.8870133 171.64999
6.6942754 0.98255616 -1.7712406 171.64999
6.7526817 0.99112874 -1.6171427 171.64999
6.7802577 0.9951762 -1.4566293 171.64999
8.9995403 1.3209127 -1.7137678 171.64999
13.019717 1.8668926 -1.2271025 171.84
13.942996 1.9992812 -0.98496139 171.84
4.4310522 0.63536698 -1.9930096 171.84
21.757576 3.1198111 -1.0250217 171.84
4.6966915 0.67345691 -1.9818448 171.84
34.634331 4.9662046 -0.81233138 171.84
4.9404511 0.70840949 -1.9489136 171.84
12.452635 1.7855788 0 171.84
5.2759738 0.75652003 -1.9399383 171.84
12.368132 1.7734621 0.2900885 171.84
5.6604786 0.81165397 -1.9322262 171.84
6.0495067 0.86743659 -1.9069941 171.84
6.5293951 0.93624765 -1.8914236 171.84
6.6706843 0.95650703 -1.7641495 171.84
6.7212558 0.96375847 -1.6088425 171.84
6.7932029 0.9740749 -1.4587084 171.84
8.992198 1.2893881 -1.7115459 171.84
10.28592 1.4437611 -1.7064805 172.00999
11.16966 1.5678053 -1.5851816 172.00999
10.9985 1.5437808 -1.2987971 172.00999
13.13366 1.8434781 -1.2373205 172.00999
4.4383459 0.62297887 -1.99545 172.00999
21.752888 3.0532975 -1.0243696 172.00999
4.7041516 0.66028816 -1.9841573 172.00999
34.650894 4.8636985 -0.81237781 172.00999
4.9462209 0.69426572 -1.9503686 172.00999
12.428169 1.7444533 0 172.00999
5.2856398 0.74190754 -1.9426744 172.00999
12.377299 1.7373132 0.29018134 172.00999
5.6703672 0.79590893 -1.934787 172.00999
6.046382 0.84868741 -1.9052069 172.00999
6.5264325 0.91606873 -1.8897697 172.00999
6.6619968 0.93509692 -1.7611105 172.00999
6.6662688 0.9356966 -1.595009 172.00999
6.8309345 0.95880949 -1.4661932 172.00999
6.9912539 0.98131239 -1.3301326 172.00999
10.29236 1.4117081 -1.7068048 172.19
11.186302 1.5343219 -1.5868517 172.19
10.959998 1.5032818 -1.2936865 172.19
13.200546 1.8105971 -1.2430799 172.19
14.567701 1.9981171 -1.0282104 172.19
4.4439011 0.6095289 -1.9970769 172.19
21.776228 2.9868443 -1.0250217 172.19
4.7007179 0.64475405 -1.9818448 172.19
34.634308 4.7504687 -0.81163508 172.19
4.9483776 0.67872328 -1.9503686 172.19
12.409811 1.7021393 0 172.19
5.2898064 0.72555393 -1.9433584 172.19
12.370811 1.69679 0.28990284 172.19
5.6672082 0.77731866 -1.9328663 172.19
6.0490184 0.82968801 -1.9052069 172.19
6.5311832 0.89582211 -1.890321 172.19
6.8604207 0.94098061 -1.8127738 172.19
6.6537514 0.91263366 -1.59132 172.19
6.8726759 0.94266152 -1.4745097 172.19
6.8930483 0.94545585 -1.3108768 172.19
10.394305 1.3942828 -1.7230169 172.36
11.544138 1.5485203 -1.6369541 172.36
13.197966 1.7703633 -1.2423368 172.36
14.735714 1.9766356 -1.0396504 172.36
4.4456902 0.59634095 -1.9970769 172.36
21.765194 2.9195638 -1.0240901 172.36
4.7044392 0.63104928 -1.9826157 172.36
34.606636 4.6421032 -0.81066018 172.36
4.9466767 0.66354281 -1.9489136 172.36
12.410842 1.6647793 0 172.36
5.2937989 0.71010548 -1.9440424 172.36
12.353992 1.6571535 0.28939217 172.36
5.6619778 0.7594927 -1.9303055 172.36
6.0552378 0.81224424 -1.9063984 172.36
6.5147576 0.87388384 -1.8848082 172.36
6.8267474 0.91573387 -1.8031503 172.36
6.7258677 0.90220195 -1.6079203 172.36
7.11587 0.95451647 -1.5260718 172.36
6.7731009 0.90853775 -1.2875477 172.36
10.368568 1.363207 -1.7181532 172.50999
11.047424 1.4524595 -1.5659758 172.50999
12.315371 1.6191627 -1.4525807 172.50999
13.204529 1.7360648 -1.2425225 172.50999
14.802159 1.946113 -1.0439754 172.50999
4.4562936 0.58589095 -2.0011442 172.50999
21.776724 2.8630936 -1.0242764 172.50999
4.7042456 0.6184904 -1.9818448 172.50999
34.628582 4.5527906 -0.81089234 172.50999
4.9502439 0.65083307 -1.9496411 172.50999
12.415157 1.6322821 0 172.50999
5.291913 0.69575393 -1.9426744 172.50999
12.360271 1.6250659 0.28943861 172.50999
5.6714611 0.745655 -1.9328663 172.50999
6.0497718 0.79539341 -1.9040154 172.50999
6.5265541 0.8580783 -1.8875647 172.50999
6.7984285 0.89382303 -1.7950463 172.50999
6.822753 0.89702106 -1.6305151 172.50999
7.1396799 0.93868899 -1.5306458 172.50999
9.0475826 1.1895304 -1.7193223 172.50999
10.343438 1.3268598 -1.7132896 172.69
11.293559 1.4487418 -1.6002123 172.69
12.312515 1.5794538 -1.4516515 172.69
13.215843 1.6953331 -1.2430799 172.69
14.8082 1.8996011 -1.0439754 172.69
4.4635491 0.57258564 -2.0035846 172.69
21.783628 2.7944117 -1.0241833 172.69
4.7025042 0.60323894 -1.9803032 172.69
34.632797 4.4427075 -0.81066018 172.69
4.9707427 0.63764864 -1.9569159 172.69
12.406338 1.5914894 0 172.69
5.2866163 0.67816901 -1.9399383 172.69
12.397046 1.5902975 0.29018134 172.69
5.6681376 0.72711068 -1.9309456 172.69
6.0636029 0.77784115 -1.9075899 172.69
6.5101485 0.83512414 -1.8820518 172.69
6.8626137 0.88033849 -1.8112544 172.69
6.7618375 0.8674109 -1.6152982 172.69
6.8263092 0.8756814 -1.4628667 172.69
7.0907793 0.8882308 -1.1740768 172.86
11.59848 1.4528906 -1.6427993 172.86
12.311234 1.5421742 -1.4509546 172.86
13.228719 1.6571035 -1.2438231 172.86
14.730625 1.8452407 -1.0381159 172.86
4.4561639 0.55820405 -1.9995173 172.86
21.760107 2.7257931 -1.0226926 172.86
4.7042732 0.58928365 -1.9803032 172.86
34.627972 4.3376937 -0.81024241 172.86
4.9633703 0.62173957 -1.9532785 172.86
12.49237 1.5648643 0 172.86
5.2923346 0.66294754 -1.9413064 172.86
12.367983 1.5492829 0.28939217 172.86
5.6552296 0.70840573 -1.9258238 172.86
6.0620952 0.75937206 -1.9063984 172.86
6.5221357 0.81699932 -1.8848082 172.86
6.6712961 0.83568394 -1.7600976 172.86
6.7663126 0.84758621 -1.6157593 172.86
6.6755285 0.83621418 -1.4300166 172.86
6.5974545 0.8264342 -1.2527391 172.86
7.0819316 0.86327922 -1.1721313 173.05
11.599302 1.4139414 -1.6422426 173.05
12.314309 1.5010999 -1.4507222 173.05
13.220304 1.6115397 -1.2425225 173.05
14.800038 1.8041074 -1.0425802 173.05
4.4543629 0.54298162 -1.9978904 173.05
21.772993 2.6541026 -1.0228789 173.05
4.7116976 0.57435042 -1.9826157 173.05
34.594532 4.2170329 -0.80912828 173.05
4.9635553 0.60505158 -1.952551 173.05
12.437931 1.5161693 0 173.05
5.2926383 0.64516646 -1.9406223 173.05
12.371068 1.5080187 0.28934577 173.05
5.6349773 0.68689722 -1.918141 173.05
6.06458 0.73926526 -1.9063984 173.05
6.5171757 0.7944361 -1.8826032 173.05
6.5395894 0.79716831 -1.7246424 173.05
6.6570406 0.81148547 -1.5890144 173.05
6.6336007 0.8086282 -1.4204527 173.05
6.7874527 0.82738256 -1.2882882 173.05
10.27492 1.2215725 -1.6999958 173.22
11.60148 1.3792856 -1.6419642 173.22
12.318708 1.4645561 -1.4507222 173.22
13.228983 1.5727774 -1.2428941 173.22
14.781552 1.7573605 -1.0409061 173.22
4.4613972 0.53040999 -2.0003309 173.22
21.743078 2.5850079 -1.0211087 173.22
4.7078829 0.55971444 -1.9803032 173.22
34.616817 4.115551 -0.80936038 173.22
4.9542289 0.58900213 -1.9481862 173.22
12.440389 1.4790225 0 173.22
5.2945294 0.62946004 -1.9406223 173.22
12.393357 1.4734309 0.28976357 173.22
5.6765022 0.67487234 -1.9315859 173.22
6.0629554 0.72081727 -1.9052069 173.22
6.5252314 0.77577668 -1.884257 173.22
6.5822725 0.78255826 -1.735279 173.22
6.5569959 0.77955317 -1.5645752 173.22
6.4145126 0.76261348 -1.3730488 173.22
6.8737998 0.81721759 -1.3042114 173.22
10.260855 1.1890363 -1.6970775 173.39
11.601586 1.3444014 -1.6414076 173.39
12.31708 1.4273133 -1.4500253 173.39
13.154467 1.5243504 -1.2354628 173.39
14.812466 1.7164806 -1.0427197 173.39
4.4647665 0.51738077 -2.0011442 173.39
21.76256 2.5218632 -1.0216677 173.39
4.7058568 0.54531854 -1.9787614 173.39
34.605042 4.0100608 -0.80880332 173.39
4.963357 0.57515788 -1.9510961 173.39
12.462603 1.4441767 0 173.39
5.2889061 0.61288279 -1.9378861 173.39
12.401647 1.4371129 0.2898564 173.39
5.6803617 0.65824503 -1.9322262 173.39
6.0783429 0.70436335 -1.9093771 173.39
6.5045872 0.75375694 -1.8776417 173.39
6.56919 0.76124316 -1.7312269 173.39
6.5167503 0.75516635 -1.5544305 173.39
6.4050875 0.74222678 -1.3705539 173.39
6.9289079 0.80292755 -1.3142096 173.39
10.21531 1.1530526 -1.6889715 173.56
11.607492 1.310195 -1.6416858 173.56
12.33113 1.3918756 -1.4511868 173.56
13.232146 1.4935778 -1.2423368 173.56
4.4717283 0.50474608 -2.0035846 173.56
21.78583 2.4590743 -1.022413 173.56
4.7074537 0.53135359 -1.9787614 173.56
34.614799 3.9071438 -0.80875695 173.56
4.9705954 0.56105566 -1.9532785 173.56
12.452921 1.4056227 0 173.56
5.2907014 0.59718758 -1.9378861 173.56
12.397908 1.3994132 0.28967071 173.56
5.6766415 0.64075059 -1.9303055 173.56
6.07092 0.68525475 -1.9063984 173.56
6.4666767 0.72992581 -1.8660649 173.56
6.5483489 0.7391445 -1.7251489 173.56
6.5305653 0.7371372 -1.5571972 173.56
7.1499977 0.80705559 -1.3556837 173.56
10.194755 1.1237104 -1.6850806 173.71001
11.616788 1.2804532 -1.6425209 173.71001
12.344604 1.3606763 -1.4523484 173.71001
13.236012 1.458931 -1.2423368 173.71001
4.4694023 0.49263707 -2.0019577 173.71001
21.752476 2.3976529 -1.0205497 173.71001
4.7124977 0.51943207 -1.9803032 173.71001
34.593113 3.813004 -0.80801415 173.71001
4.9738989 0.54824489 -1.954006 173.71001
12.486378 1.3763032 0 173.71001
5.2978506 0.58395225 -1.9399383 173.71001
12.421404 1.3691415 0.29013494 173.71001
5.6839495 0.62650979 -1.9322262 173.71001
6.0802841 0.67019552 -1.9087814 173.71001
6.4819422 0.714468 -1.8699238 173.71001
6.5598769 0.72305834 -1.7276814 173.71001
6.4299493 0.70873713 -1.532758 173.71001
6.6249743 0.73023367 -1.4167103 173.71001
9.0509739 0.99763787 -1.7156193 173.71001
10.158988 1.0874759 -1.6785958 173.89
11.612876 1.2431085 -1.6414076 173.89
12.331041 1.319985 -1.4502577 173.89
13.177168 1.4105592 -1.2363917 173.89
14.374576 1.5387365 -1.0109109 173.89
4.4672947 0.47820467 -2.0003309 173.89
21.728117 2.3259015 -1.0190591 173.89
4.7122712 0.50442839 -1.9795322 173.89
34.557205 3.6992004 -0.80690008 173.89
4.9700398 0.5320214 -1.9518236 173.89
12.470754 1.3349406 0 173.89
5.3033967 0.56770581 -1.9413064 173.89
12.391846 1.3264939 0.28934577 173.89
5.6840057 0.60844839 -1.9315859 173.89
6.0728679 0.65007436 -1.9058026 173.89
6.4956245 0.69532865 -1.8732314 173.89
6.6217542 0.70883036 -1.7433829 173.89
6.6624165 0.71318305 -1.5876311 173.89
6.734221 0.72086936 -1.4395806 173.89
7.1955667 0.77025449 -1.3634601 173.89
10.156281 1.0567162 -1.677623 174.06
11.586966 1.2055726 -1.6372323 174.06
12.328977 1.2827755 -1.4495608 174.06
13.072359 1.3601213 -1.2261735 174.06
4.4723282 0.46532601 -2.0019577 174.06
21.723 2.2601821 -1.0185001 174.06
4.713747 0.49044457 -1.9795322 174.06
34.58593 3.5985131 -0.80731785 174.06
4.9586253 0.51592308 -1.9467312 174.06
12.454767 1.2958635 0 174.06
5.3087964 0.55235684 -1.9426744 174.06
12.42158 1.2924106 0.28994924 174.06
5.6876707 0.59177703 -1.9322262 174.06
6.07477 0.63205302 -1.9058026 174.06
6.4747124 0.67366529 -1.8666161 174.06
6.5468521 0.68117106 -1.7231228 174.06
6.5735269 0.68394643 -1.5659585 174.06
6.9542589 0.72355992 -1.4861528 174.06
7.0590248 0.73446035 -1.3371685 174.06
7.9839063 0.8053447 -1.318364 174.24001
11.590695 1.1691651 -1.6372323 174.24001
12.32504 1.2432393 -1.4486315 174.24001
13.23309 1.3348352 -1.2408504 174.24001
4.4737682 0.4512735 -2.0019577 174.24001
21.72403 2.1913249 -1.0182205 174.24001
4.7262816 0.4767448 -1.9841573 174.24001
34.54335 3.4844227 -0.80606449 174.24001
4.9676361 0.50109047 -1.9496411 174.24001
12.494595 1.2603424 0 174.24001
5.2992859 0.53454435 -1.9385701 174.24001
12.401708 1.2509727 0.28939217 174.24001
5.6895018 0.57390577 -1.9322262 174.24001
6.0729265 0.61258221 -1.9046111 174.24001
6.4920998 0.65486467 -1.8710264 174.24001
6.508534 0.65652239 -1.7124863 174.24001
6.527236 0.65840888 -1.5544305 174.24001
6.7482309 0.6807009 -1.4416597 174.24001
7.0006771 0.70616537 -1.325689 174.24001
7.9392562 0.775653 -1.3105823 174.42
12.33877 1.2054787 -1.449793 174.42
13.209472 1.2905449 -1.2382495 174.42
14.412022 1.4080322 -1.0125849 174.42
4.4733453 0.4370389 -2.0011442 174.42
21.728819 2.1228719 -1.0181273 174.42
4.7148991 0.46063831 -1.9787614 174.42
34.564075 3.3768566 -0.80629659 174.42
4.9580607 0.48439485 -1.9452763 174.42
12.45072 1.216416 0 174.42
5.3084211 0.51862448 -1.9413064 174.42
12.413536 1.2127832 0.28957787 174.42
5.6912766 0.5560289 -1.9322262 174.42
6.0634198 0.59238672 -1.9010366 174.42
6.4692507 0.63203573 -1.8638598 174.42
6.6318793 0.6479243 -1.744396 174.42
6.5563884 0.640549 -1.5608861 174.42
6.6958194 0.65417117 -1.4300166 174.42
6.8131185 0.66563112 -1.2897695 174.42
7.7529068 0.7342307 -1.2794551 174.59
10.148412 0.96109438 -1.4326479 174.59
12.322516 1.1669906 -1.4474699 174.59
14.374425 1.3613145 -1.0096552 174.59
4.4800792 0.42428109 -2.0035846 174.59
21.7211 2.0570734 -1.0174752 174.59
4.7162447 0.4466469 -1.9787614 174.59
34.498302 3.2671247 -0.80453253 174.59
4.9650402 0.47020879 -1.9474586 174.59
46.2411 4.3792138 0 174.59
5.3043237 0.50234026 -1.9392542 174.59
12.425042 1.1767002 0.28976357 174.59
5.6910152 0.53896147 -1.9315859 174.59
6.0708532 0.57493365 -1.9028239 174.59
6.5170321 0.61718857 -1.8770903 174.59
6.6260676 0.6275146 -1.74237 174.59
6.4846373 0.6141206 -1.5433637 174.59
6.7035737 0.63485473 -1.431264 174.59
6.9128971 0.65467846 -1.3082848 174.59
10.081798 0.92638713 -1.6633565 174.75
12.327705 1.1327569 -1.4477023 174.75
14.304661 1.3144137 -1.0044932 174.75
4.4757881 0.41126716 -2.0011442 174.75
21.702887 1.994215 -1.0163572 174.75
4.7248249 0.4341504 -1.9818448 174.75
34.511272 3.1711407 -0.80462539 174.75
4.9737549 0.45702386 -1.9503686 174.75
12.531209 1.1514564 0 174.75
5.3131914 0.48821372 -1.9419904 174.75
12.376512 1.1372416 0.28855661 174.75
5.683064 0.52220023 -1.9283848 174.75
6.0819407 0.55885184 -1.9058026 174.75
6.5091581 0.59810764 -1.874334 174.75
6.6393542 0.61007094 -1.745409 174.75
6.5270238 0.59974927 -1.5530472 174.75
6.8105168 0.62579858 -1.4537185 174.75
6.9968996 0.64292473 -1.3238375 174.75
8.052 0.71437246 -1.3280913 174.92999
11.588152 1.0280994 -1.6350056 174.92999
12.32131 1.0931451 -1.4465408 174.92999
13.180764 1.1693958 -1.2345338 174.92999
4.4843378 0.39784992 -2.0043981 174.92999
21.717003 1.9267299 -1.0167298 174.92999
4.7132974 0.41816318 -1.9764489 174.92999
34.515091 3.0621746 -0.80448616 174.92999
4.9807329 0.44189003 -1.952551 174.92999
12.492929 1.1083711 0 174.92999
5.3053389 0.47068903 -1.9385701 174.92999
5.6960006 0.50534844 -1.9322262 174.92999
6.0703545 0.53856111 -1.9016324 174.92999
6.5339851 0.57969433 -1.8809493 174.92999
6.7086911 0.59519428 -1.7631366 174.92999
6.5967236 0.58526051 -1.5691863 174.92999
6.6019964 0.58572829 -1.4088097 174.92999
7.012589 0.62215602 -1.3264296 174.92999
7.7354231 0.66451973 -1.2755642 175.09
8.0608015 0.69247168 -1.1370442 175.09
12.314418 1.0578831 -1.4453793 175.09
13.195883 1.1336063 -1.2356485 175.09
4.4872518 0.38548213 -2.0052116 175.09
21.694433 1.8636832 -1.0154256 175.09
4.7181244 0.40531546 -1.9779906 175.09
34.509563 2.9645805 -0.80416119 175.09
4.9708104 0.42702276 -1.9481862 175.09
5.3197403 0.4569979 -1.9433584 175.09
5.693614 0.48911592 -1.9309456 175.09
6.0851502 0.52275127 -1.9058026 175.09
6.5279164 0.56078756 -1.8787442 175.09
6.5657496 0.56403768 -1.7251489 175.09
6.670074 0.57299978 -1.5862477 175.09
6.8901262 0.59190357 -1.4699357 175.09
7.004508 0.60172969 -1.324578 175.09
7.9616904 0.65876716 -1.3125277 175.27
11.596023 0.95947957 -1.6352839 175.27
12.31966 1.0193549 -1.4456116 175.27
13.175564 1.0901742 -1.2334191 175.27
14.337873 1.1863461 -1.0060278 175.27
4.4920826 0.37168446 -2.0068386 175.27
21.694208 1.7950249 -1.015146 175.27
4.7193742 0.39049107 -1.9779906 175.27
29.871841 2.4716597 -0.69590604 175.27
4.9795542 0.4120189 -1.9510961 175.27
29.873913 2.4718311 0 175.27
5.3192763 0.44012827 -1.9426744 175.27
29.88579 2.4728138 0.69623101 175.27
5.7045636 0.47200775 -1.9341469 175.27
29.833517 2.4684887 1.3960122 175.27
6.0905676 0.50394654 -1.9069941 175.27
29.819036 2.4672904 2.0922756 175.27
6.5430579 0.54138654 -1.8826032 175.27
29.893585 2.4734588 2.7984624 175.27
6.6484742 0.55010885 -1.7464221 175.27
29.847906 2.4696794 3.5024083 175.27
6.7048125 0.55477047 -1.5940868 175.27
6.7944703 0.56218892 -1.4491445 175.27
6.9946113 0.578749 -1.3223562 175.27
7.9951978 0.63625652 -1.3177155 175.45
11.561468 0.92005974 -1.6299953 175.45
12.322803 0.98064661 -1.4456116 175.45
13.151133 1.0465649 -1.2308182 175.45
14.38926 1.145095 -1.0093762 175.45
4.4841213 0.35684565 -2.0027711 175.45
4.724257 0.37595561 -1.9795322 175.45
34.483658 2.744204 -0.80313993 175.45
4.9752526 0.39592981 -1.9489136 175.45
48.977161 3.8975945 0 175.45
5.307519 0.42237148 -1.9378861 175.45
5.7022409 0.45378342 -1.9328663 175.45
6.0864115 0.48435563 -1.9052069 175.45
6.531311 0.51976067 -1.8787442 175.45
6.607738 0.52584273 -1.735279 175.45
6.4814844 0.51579547 -1.540597 175.45
6.7318482 0.53571939 -1.4354223 175.45
7.3686481 0.5863958 -1.392714 175.45
7.9085002 0.60574907 -1.3031247 175.62
7.7568254 0.59413159 -1.0933439 175.62
12.341503 0.94529349 -1.4474699 175.62
13.052917 0.99978411 -1.2213432 175.62
12.683784 0.97151047 -0.88953453 175.62
4.4833388 0.34339991 -2.0019577 175.62
12.748762 0.9764874 -0.59626788 175.62
4.7216716 0.36165494 -1.9779906 175.62
34.445797 2.6383648 -0.80207223 175.62
4.9726906 0.38088164 -1.9474586 175.62
44.070911 3.3755977 0 175.62
5.3106227 0.40676546 -1.9385701 175.62
5.6960053 0.43628374 -1.9303055 175.62
6.0935326 0.4667322 -1.9069941 175.62
6.5481596 0.50155425 -1.8831544 175.62
6.6189146 0.50697368 -1.7378114 175.62
6.6846437 0.51200819 -1.4250268 175.62
7.8059473 0.57460272 -1.2859399 175.78999
11.586476 0.85289079 -1.6327788 175.78999
12.326424 0.90735894 -1.4453793 175.78999
13.047883 0.96046621 -1.2206 175.78999
4.4843378 0.33009607 -2.0019577 175.78999
21.665771 1.5948366 -1.0130963 175.78999
4.733767 0.34845677 -1.9826157 175.78999
12.608479 0.92812133 -0.2935237 175.78999
4.9775147 0.36639926 -1.9489136 175.78999
43.893242 3.2310205 0 175.78999
5.3118062 0.39100674 -1.9385701 175.78999
12.452942 0.91667211 0.28990284 175.78999
5.695385 0.41924235 -1.9296652 175.78999
6.0625215 0.44626758 -1.8968663 175.78999
6.5419497 0.48155871 -1.8809493 175.78999
6.7207279 0.49471876 -1.7641495 175.78999
7.0666904 0.52018535 -1.6789325 175.78999
6.9709821 0.51314014 -1.485737 175.78999
7.0975814 0.52245927 -1.3408715 175.78999
7.7327142 0.54750556 -1.2736188 175.95
11.56313 0.81871355 -1.6291603 175.95
12.31702 0.87209183 -1.4439855 175.95
12.889617 0.91263384 -1.2055515 175.95
12.655337 0.89604598 -0.8871628 175.95
4.4888873 0.31783026 -2.0035846 175.95
12.847838 0.90967572 -0.60064673 175.95
4.7199945 0.33419353 -1.9764489 175.95
34.458427 2.4397874 -0.80202579 175.95
4.9710851 0.35197169 -1.9460037 175.95
43.904087 3.1085761 0 175.95
5.3203759 0.37670282 -1.9413064 175.95
5.6851935 0.40253329 -1.9258238 175.95
6.0694575 0.42974064 -1.8986536 175.95
6.5528579 0.4639672 -1.8837057 175.95
6.7201533 0.47581238 -1.7636431 175.95
6.7594557 0.47859514 -1.6056147 175.95
6.9567766 0.4925662 -1.4824103 175.95
7.1480255 0.50610739 -1.3501291 175.95
7.7266111 0.52132851 -1.2723218 176.14
11.524284 0.77756441 -1.6233151 176.14
12.317863 0.83110857 -1.4437531 176.14
12.634352 0.85246271 -0.88548869 176.14
4.4917393 0.30306584 -2.0043981 176.14
4.7026639 0.31729728 -1.9687405 176.14
34.452362 2.3245635 -0.80170083 176.14
4.9573545 0.33448172 -1.9401839 176.14
51.941902 3.5046146 0 176.14
5.3234711 0.35918427 -1.9419904 176.14
5.6751542 0.38291299 -1.9219824 176.14
6.0937076 0.41115353 -1.9058026 176.14
6.5543604 0.44223461 -1.8837057 176.14
6.7834673 0.45769289 -1.7798512 176.14
6.7299385 0.45408118 -1.5982368 176.14
6.8959122 0.46527973 -1.4691041 176.14
6.9770999 0.47075763 -1.3175423 176.14
7.7536392 0.50140536 -1.2765369 176.3
11.554081 0.7471689 -1.6272119 176.3
12.316171 0.79645103 -1.4432886 176.3
12.761809 0.82526916 -1.193104 176.3
12.660575 0.81872267 -0.8871628 176.3
4.4870982 0.29016763 -2.0019577 176.3
12.785371 0.82679284 -0.59747905 176.3
4.7035317 0.30416375 -1.9687405 176.3
12.618237 0.81598473 -0.29357013 176.3
4.9545512 0.32039645 -1.9387289 176.3
5.322578 0.34419566 -1.9413064 176.3
5.6762013 0.36706349 -1.9219824 176.3
6.0986423 0.39438152 -1.9069941 176.3
6.5383029 0.42281309 -1.8787442 176.3
6.7152114 0.43425325 -1.7616171 176.3
6.8399358 0.4423188 -1.6240594 176.3
6.7039151 0.43352273 -1.4279375 176.3
7.0195751 0.45393556 -1.3253187 176.3
7.766995 0.47777116 -1.2784824 176.48
11.493114 0.70697588 -1.6183048 176.48
12.316629 0.75763279 -1.4430562 176.48
12.867694 0.79153043 -1.2027647 176.48
12.681006 0.78004676 -0.88841844 176.48
4.4825168 0.27573305 -1.9995173 176.48
12.620404 0.77631891 -0.58965302 176.48
4.7155161 0.29006553 -1.9733655 176.48
34.44759 2.1189744 -0.80128306 176.48
4.9871445 0.3067742 -1.9510961 176.48
5.3198814 0.32724184 -1.9399383 176.48
5.6754355 0.34911305 -1.9213421 176.48
6.0941348 0.37486848 -1.9052069 176.48
6.5626259 0.40368679 -1.8853595 176.48
6.7474408 0.41505533 -1.7697212 176.48
6.9151044 0.42536882 -1.6415819 176.48
6.7677274 0.41630319 -1.4412439 176.48
7.4976625 0.46120372 -1.4153026 176.48
7.7663288 0.45596412 -1.2781582 176.64
11.51086 0.67580694 -1.6205316 176.64
12.32068 0.72335184 -1.4432886 176.64
12.985154 0.76236331 -1.2135402 176.64
12.509858 0.73445851 -0.87628084 176.64
4.4832692 0.26321444 -1.9995173 176.64
12.768114 0.7496208 -0.5964542 176.64
4.7236767 0.27732885 -1.9764489 176.64
34.441395 2.0220675 -0.80100453 176.64
4.984262 0.29262793 -1.9496411 176.64
12.578341 0.73847914 0 176.64
5.3188982 0.31227455 -1.9392542 176.64
12.495111 0.73359269 0.29059914 176.64
5.6726055 0.3330408 -1.9200617 176.64
6.0951576 0.35784903 -1.9052069 176.64
6.5733237 0.38592231 -1.8881159 176.64
6.7022185 0.39348978 -1.757565 176.64
7.0250607 0.41244397 -1.6674045 176.64
6.9934506 0.41058815 -1.4890635 176.64
7.1516399 0.4198755 -1.3497587 176.64
7.822897 0.43462867 -1.2872369 176.82001
8.1156044 0.45089105 -1.1423328 176.82001
12.322891 0.68464172 -1.4432886 176.82001
12.852282 0.71405387 -1.200907 176.82001
12.502143 0.6946007 -0.87558323 176.82001
4.4877229 0.24933128 -2.0011442 176.82001
12.770406 0.70950496 -0.5964542 176.82001
4.724525 0.26248765 -1.9764489 176.82001
34.461552 1.9146332 -0.80132949 176.82001
4.9702759 0.27614123 -1.9438213 176.82001
5.3067174 0.29483342 -1.9344659 176.82001
5.6849747 0.31584883 -1.9239031 176.82001
6.0848141 0.33806333 -1.9016324 176.82001
6.5802622 0.36558968 -1.8897697 176.82001
6.7903533 0.37726206 -1.7803577 176.82001
6.6027217 0.3668375 -1.5668807 176.82001
6.8931351 0.38297245 -1.4674407 176.82001
7.3668246 0.40928996 -1.3901219 176.82001
7.920795 0.41511127 -1.3031247 177
8.0161123 0.42010662 -1.1281371 177
12.322998 0.64582098 -1.4430562 177
12.751053 0.66825438 -1.1912462 177
4.4830103 0.23494461 -1.9987038 177
21.644741 1.1343528 -1.0107672 177
4.7234831 0.24754725 -1.9756781 177
34.405499 1.8031158 -0.7998904 177
4.9525142 0.25955027 -1.9365466 177
5.3057408 0.27806211 -1.9337819 177
5.6878309 0.29808658 -1.9245434 177
6.1125383 0.32034457 -1.9099729 177
6.5871377 0.34521726 -1.8914236 177
6.6910334 0.3506622 -1.7540195 177
6.7340527 0.35291675 -1.5977757 177
7.0740371 0.37073457 -1.5056964 177
7.591825 0.39787069 -1.4323366 177
7.6381483 0.37757677 -1.256434 177.17
11.340566 0.56059849 -1.5957588 177.17
12.299067 0.60798007 -1.4400363 177.17
12.71519 0.62855029 -1.1877162 177.17
4.4800377 0.22146182 -1.9970769 177.17
4.718667 0.23325798 -1.9733655 177.17
34.426674 1.7018147 -0.8002618 177.17
4.9848948 0.24641843 -1.9489136 177.17
12.612599 0.62347895 0 177.17
5.3196821 0.26296797 -1.9385701 177.17
12.493374 0.61758524 0.29041347 177.17
5.6867981 0.28111562 -1.9239031 177.17
6.1210895 0.30258396 -1.9123559 177.17
6.5900536 0.32576627 -1.8919748 177.17
6.9529238 0.34370404 -1.8223975 177.17
6.9119506 0.34167862 -1.6397375 177.17
6.5045643 0.32154027 -1.384276 177.17
7.2337389 0.35758558 -1.364571 177.17
7.8620048 0.365262 -1.2930732 177.34
7.9136086 0.36765945 -1.1133848 177.34
12.30677 0.57176197 -1.4407333 177.34
12.647376 0.58758628 -1.1812139 177.34
12.665378 0.5884226 -0.88660479 177.34
4.4532981 0.20689641 -1.9848748 177.34
12.730418 0.59144431 -0.59431136 177.34
4.7211819 0.21934205 -1.9741364 177.34
34.435566 1.5998468 -0.8003546 177.34
4.9762993 0.23119459 -1.9452763 177.34
