# .PCD v0.7 - Point Cloud Data file format
VERSION 0.7
FIELDS x y z intensity
SIZE 4 4 4 4
TYPE F F F F
COUNT 1 1 1 1
WIDTH 1253
HEIGHT 1
VIEWPOINT 0 0 0 1 0 0 0
POINTS 1253
DATA ascii
2.4613388 3.3642247 -1.5172013 126.19
2.4837067 3.3947978 -1.4213195 126.19
33.956158 46.412201 2.681808 126.19
2.7946296 3.8197756 -1.476863 126.19
34.191811 46.734295 4.0492239 126.19
4.0162754 5.4895544 -1.9504099 126.19
4.3652325 5.9665184 -1.9353476 126.19
4.8251271 6.5951147 -1.9362366 126.19
5.3193436 7.2706237 -1.9148667 126.19
5.8907547 8.0516443 -1.8796641 126.19
6.6231265 8.9998226 -1.8358527 126.35
7.0809407 9.6219225 -1.6789843 126.35
8.8988571 12.092196 -1.755734 126.35
10.380799 14.105929 -1.6339692 126.35
11.766321 15.988643 -1.3881538 126.35
2.3857312 3.2418461 -1.7920816 126.35
13.854504 18.826166 -1.0900521 126.35
2.5639751 3.4840527 -1.8068628 126.35
22.617884 30.734268 -0.88595605 126.35
2.2636745 3.0759897 -1.4913299 126.35
24.757757 33.642033 0 126.35
2.6456127 3.5949857 -1.6245956 126.35
34.997578 47.556389 1.370876 126.35
2.4898078 3.3832705 -1.4193988 126.35
2.8177333 3.8288713 -1.4834162 126.35
34.091587 46.325287 4.0220189 126.35
4.0213337 5.4643817 -1.9454484 126.35
4.3830237 5.9558635 -1.9358541 126.35
4.8446789 6.5831823 -1.9366978 126.35
5.3361478 7.2510142 -1.9136192 126.35
5.9132166 8.0351629 -1.8796641 126.35
6.6298347 8.9531698 -1.8303406 126.52
8.9252396 12.052967 -1.7538755 126.52
10.389425 14.030257 -1.6287671 126.52
11.768591 15.892733 -1.3828523 126.52
2.4486175 3.3067019 -1.8319418 126.52
13.034071 17.601683 -1.0213882 126.52
2.4919324 3.365196 -1.7490493 126.52
22.757761 30.732906 -0.88785928 126.52
2.2794433 3.078243 -1.4956949 126.52
2.5544906 3.449677 -1.562348 126.52
34.480518 46.563744 1.3452048 126.52
2.4964526 3.3713002 -1.4174781 126.52
2.8245366 3.8143568 -1.4810332 126.52
34.218201 46.209499 4.0207629 126.52
4.0363851 5.450881 -1.9448972 126.52
4.4064326 5.9506068 -1.9383866 126.52
4.8630319 6.567215 -1.9362366 126.52
5.3622952 7.2414384 -1.9152825 126.52
5.9428792 8.0254803 -1.8815156 126.52
6.6504741 8.9255466 -1.8287194 126.69
7.6183496 10.224524 -1.7919929 126.69
8.9395981 11.997761 -1.7496941 126.69
10.423869 13.989788 -1.6276525 126.69
11.770395 15.79695 -1.3775508 126.69
2.4322181 3.2642596 -1.8124185 126.69
13.091013 17.56934 -1.0217609 126.69
2.4544923 3.2941537 -1.7159029 126.69
22.857208 30.676472 -0.88818425 126.69
2.4610994 3.3030212 -1.6084539 126.69
24.721548 33.178585 0 126.69
2.4310889 3.2627444 -1.4809473 126.69
34.613747 46.454819 1.3450191 126.69
2.5370107 3.404901 -1.4347644 126.69
34.229771 45.939491 2.6716528 126.69
2.4970462 3.3512652 -1.3040956 126.69
34.585224 46.416542 4.047689 126.69
4.0548377 5.4419641 -1.9459997 126.69
4.4367852 5.9545727 -1.9439582 126.69
4.8848214 6.5558782 -1.9371589 126.69
5.3580422 7.1909842 -1.9061344 126.69
5.9654908 8.0062361 -1.8811452 126.69
6.6666408 8.8888206 -1.825477 126.87
7.740746 10.320956 -1.8131472 126.87
8.9665194 11.955314 -1.7476034 126.87
10.459404 13.945821 -1.626352 126.87
11.705046 15.606669 -1.3641576 126.87
2.4621935 3.2829125 -1.8270611 126.87
13.088607 17.45141 -1.0172889 126.87
2.3795676 3.172745 -1.6565478 126.87
22.927076 30.569321 -0.88716298 126.87
2.5418856 3.3891683 -1.6542851 126.87
2.497709 3.3302662 -1.5151492 126.87
34.856689 46.475414 1.3487793 126.87
2.5886219 3.451483 -1.4578128 126.87
34.493793 45.991554 2.6809695 126.87
2.532764 3.3770061 -1.3172021 126.87
34.673412 46.231045 4.0409927 126.87
4.0696073 5.4261227 -1.9448972 126.87
4.4659181 5.9545355 -1.9485166 126.87
4.908896 6.5451703 -1.9385422 126.87
5.386476 7.1819415 -1.9082135 126.87
5.9953308 7.9937444 -1.8826265 126.87
6.7001176 8.8784533 -1.8274225 127.04
7.7701416 10.296363 -1.8128688 127.04
8.985199 11.906459 -1.7443511 127.04
10.474346 13.879756 -1.6222647 127.04
11.664769 15.457208 -1.3541126 127.04
2.4906332 3.3003857 -1.84089 127.04
2.2766926 3.0168886 -1.5786924 127.04
23.030926 30.518717 -0.88767362 127.04
11.92095 15.796679 0 127.04
2.5109754 3.3273411 -1.5172013 127.04
2.6673322 3.5345325 -1.4962268 127.04
3.7503307 4.9696345 -1.9427391 127.04
34.916191 46.268108 4.0532699 127.04
4.0868468 5.4155588 -1.9454484 127.04
4.4858971 5.9443474 -1.9495296 127.04
4.9247775 6.5259166 -1.9371589 127.04
5.437222 7.2049665 -1.9186091 127.04
6.0166545 7.9727831 -1.8818859 127.04
6.7291708 8.8589325 -1.8277467 127.22
7.7952623 10.262439 -1.8111987 127.22
8.9516678 11.784842 -1.7306454 127.22
9.1784687 12.083426 -1.4156731 127.22
11.669827 15.363291 -1.3490902 127.22
2.4899378 3.2779953 -1.8327553 127.22
12.339391 16.244768 -0.95132673 127.22
2.305136 3.0347044 -1.5917968 127.22
23.14362 30.468504 -0.88832355 127.22
2.5805717 3.3973143 -1.6659247 127.22
2.6362326 3.4705918 -1.5862894 127.22
2.7082214 3.5653651 -1.5128729 127.22
35.192917 46.331364 4.0684767 127.22
4.1143064 5.4164715 -1.9504099 127.22
4.5127416 5.9410105 -1.9530752 127.22
4.9393692 6.5026641 -1.9348533 127.22
5.4657469 7.1956387 -1.9206882 127.22
6.0428605 7.9554071 -1.8822562 127.22
6.7506323 8.832655 -1.8264498 127.39
7.8256774 10.239264 -1.8111987 127.39
8.9878006 11.759809 -1.7308778 127.39
9.0715923 11.869443 -1.3937505 127.39
11.69961 15.307991 -1.3472766 127.39
12.353567 16.163641 -0.94871807 127.39
2.3455081 3.0689073 -1.6133804 127.39
23.246061 30.415586 -0.88878775 127.39
2.3146069 3.0284755 -1.48842 127.39
2.6293998 3.4403565 -1.5760288 127.39
2.7118847 3.5482814 -1.5090315 127.39
4.1268568 5.3996577 -1.9487561 127.39
4.5279994 5.92452 -1.9520621 127.39
4.9669137 6.4988036 -1.9380811 127.39
5.4930124 7.187161 -1.9227673 127.39
6.058084 7.9265118 -1.8796641 127.39
6.7776771 8.8168993 -1.8270983 127.55
7.8530331 10.2158 -1.8109204 127.55
9.0097094 11.72049 -1.7287869 127.55
9.2746124 12.065095 -1.4197603 127.55
11.766631 15.306895 -1.3500668 127.55
2.5187981 3.2766371 -1.8400766 127.55
13.916983 18.104231 -1.0648972 127.55
2.3394475 3.0433245 -1.6033595 127.55
23.322378 30.339457 -0.88846278 127.55
2.2413054 2.9156542 -1.4360416 127.55
11.940413 15.532965 0 127.55
2.6755922 3.4806063 -1.4834222 127.55
2.7274191 3.5480266 -1.3964368 127.55
4.1442628 5.3911605 -1.9498587 127.55
4.5374513 5.9026489 -1.9490231 127.55
4.9719954 6.467936 -1.9330088 127.55
5.513061 7.1717939 -1.9227673 127.55
6.0825911 7.9126797 -1.8804047 127.55
6.8110518 8.8061171 -1.8290436 127.72
7.884521 10.194022 -1.8111987 127.72
9.0189238 11.660708 -1.7239087 127.72
9.199502 11.894182 -1.402854 127.72
11.842511 15.31137 -1.3535546 127.72
2.5005634 3.2330182 -1.8197397 127.72
11.952657 15.453779 -0.91107863 127.72
2.3710482 3.0655658 -1.6187764 127.72
11.947743 15.447427 -0.45339966 127.72
2.3719039 3.0666721 -1.5138818 127.72
11.942398 15.440516 0 127.72
2.6848154 3.4712403 -1.597234 127.72
2.677793 3.4621611 -1.4789405 127.72
35.199162 45.509556 2.6830192 127.72
4.1602407 5.3788404 -1.9498587 127.72
4.5502095 5.883038 -1.9469972 127.72
4.9971175 6.4608521 -1.9353144 127.72
5.5211506 7.1383829 -1.9181932 127.72
6.1060414 7.8945975 -1.8804047 127.72
6.8459573 8.7940197 -1.8309891 127.9
7.9152908 10.167639 -1.8109204 127.9
9.0189047 11.585293 -1.7169396 127.9
9.2466097 11.877793 -1.4043403 127.9
11.86972 15.247326 -1.3511829 127.9
2.5196867 3.2366803 -1.8262476 127.9
11.981511 15.390929 -0.90958798 127.9
2.2752378 2.9226716 -1.5470877 127.9
2.4948235 3.204742 -1.5859021 127.9
2.6714633 3.4316459 -1.5828692 127.9
2.7189186 3.4926045 -1.4955865 127.9
2.7033026 3.4725451 -1.3732026 127.9
4.1712132 5.3581591 -1.9471023 127.9
4.5746121 5.876348 -1.9495296 127.9
5.013804 6.4405146 -1.9339311 127.9
5.5663819 7.1503325 -1.9260939 127.9
6.1259837 7.8691726 -1.8789234 127.9
6.8708029 8.7721148 -1.8306649 128.07001
7.9356542 10.131636 -1.8086936 128.07001
9.0642633 11.572556 -1.7190304 128.07001
9.3198767 11.898905 -1.4100996 128.07001
11.901375 15.194763 -1.3496482 128.07001
2.4763277 3.1615856 -1.7880143 128.07001
12.528511 15.995444 -0.9475069 128.07001
2.265692 2.892662 -1.5347542 128.07001
12.706425 16.222589 -0.47842088 128.07001
2.605413 3.3263919 -1.6499201 128.07001
26.083185 33.301014 0 128.07001
2.6364374 3.3660014 -1.5561917 128.07001
2.8858285 3.6844049 -1.5813779 128.07001
35.976662 45.932247 2.7208447 128.07001
3.8472993 4.9119372 -1.9469093 128.07001
44.595093 56.9356 5.0572047 128.07001
4.1930199 5.3533268 -1.9498587 128.07001
4.5920272 5.8627486 -1.9495296 128.07001
5.0352912 6.4286742 -1.9348533 128.07001
5.5911918 7.1384053 -1.9273413 128.07001
6.145669 7.8463197 -1.8778125 128.07001
6.8674831 8.714489 -1.8228831 128.24001
7.957099 10.097157 -1.8067452 128.24001
9.1120844 11.562774 -1.7215856 128.24001
9.231884 11.714793 -1.3915212 128.24001
9.9890919 12.675653 -1.1285203 128.24001
2.3997495 3.0451608 -1.7261903 128.24001
11.135312 14.130147 -0.8389675 128.24001
2.3096752 2.930861 -1.5586504 128.24001
2.6510177 3.3640075 -1.672472 128.24001
2.6301272 3.3374984 -1.5466151 128.24001
2.7501509 3.4898026 -1.5013487 128.24001
3.8476758 4.8825059 -1.9397603 128.24001
44.592175 56.585217 5.0378127 128.24001
4.2112651 5.3438826 -1.9509612 128.24001
4.6189828 5.8612552 -1.9535817 128.24001
5.0543432 6.4137058 -1.9348533 128.24001
5.6111364 7.1202478 -1.9269255 128.24001
6.1713557 7.8311381 -1.8785532 128.24001
6.8985057 8.6975098 -1.8238558 128.42
7.9752426 10.05504 -1.8036834 128.42
8.1781025 10.310802 -1.5389967 128.42
9.3131905 11.741899 -1.3982095 128.42
9.4982233 11.975186 -1.0688087 128.42
2.3718364 2.9903679 -1.6993457 128.42
2.4645176 3.1072185 -1.6565478 128.42
12.781677 16.114904 -0.47753888 128.42
2.8097599 3.5424936 -1.7655891 128.42
26.124552 32.937355 0 128.42
2.6581178 3.351306 -1.5568757 128.42
2.7952468 3.5241959 -1.5199155 128.42
3.8677413 4.8763776 -1.9421433 128.42
44.820557 56.508934 5.0435324 128.42
4.2387848 5.3441825 -1.9559227 128.42
4.6421828 5.8527789 -1.9556077 128.42
5.0768862 6.4008451 -1.9357755 128.42
5.6359086 7.1056504 -1.9277571 128.42
6.1885991 7.8024726 -1.8763313 128.42
6.93536 8.6908865 -1.826774 128.59
8.0025711 10.028236 -1.8031267 128.59
8.1987467 10.27407 -1.5371383 128.59
9.5206385 11.930569 -1.4240334 128.59
2.4650316 3.0889974 -1.7595427 128.59
10.623276 13.312313 -0.79424745 128.59
2.4725749 3.0984499 -1.655777 128.59
12.855625 16.10973 -0.47851375 128.59
2.5971475 3.2545552 -1.6259134 128.59
2.6645327 3.3389976 -1.5548235 128.59
3.0030584 3.7632132 -1.6268345 128.59
3.8762386 4.8574185 -1.9391646 128.59
44.988022 56.375702 5.0435324 128.59
4.2462287 5.321063 -1.9520638 128.59
4.6691823 5.851078 -1.9596597 128.59
5.0946417 6.384232 -1.9353144 128.59
5.6545262 7.0858388 -1.9269255 128.59
6.1908817 7.7579603 -1.8700361 128.59
6.9710002 8.6825819 -1.8293679 128.75999
8.0322905 10.004448 -1.8031267 128.75999
8.2814274 10.314756 -1.546895 128.75999
9.4575062 11.779596 -1.4093565 128.75999
2.3243394 2.8950315 -1.6529777 128.75999
12.616415 15.714108 -0.93977404 128.75999
2.5637891 3.1932733 -1.710507 128.75999
12.854548 16.01071 -0.47670329 128.75999
2.5053201 3.1204484 -1.5626228 128.75999
2.5779462 3.2109063 -1.4987322 128.75999
2.7259569 3.3952577 -1.4712577 128.75999
2.9977601 3.7337966 -1.4941397 128.75999
45.155094 56.24197 5.0435324 128.75999
4.2644053 5.311439 -1.9531662 128.75999
4.6877337 5.838707 -1.9601662 128.75999
5.1196532 6.3766756 -1.93762 128.75999
5.6767502 7.0705562 -1.9273413 128.75999
6.2015681 7.7242317 -1.8663331 128.75999
7.0004516 8.6664658 -1.8303406 128.92999
6.7925377 8.409071 -1.5192136 128.92999
8.3656693 10.356587 -1.5568839 128.92999
9.5549803 11.828938 -1.4186456 128.92999
2.3753982 2.9407113 -1.6830763 128.92999
2.5570176 3.1655536 -1.6997153 128.92999
12.677099 15.69408 -0.46839383 128.92999
2.513397 3.1115518 -1.5618954 128.92999
2.4953477 3.0892072 -1.4453771 128.92999
2.7086349 3.3532538 -1.4565322 128.92999
3.0004275 3.7144892 -1.4899695 128.92999
45.388214 56.190002 5.0509267 128.92999
4.2922263 5.3137188 -1.9586791 128.92999
4.7074685 5.8277831 -1.9611793 128.92999
5.1458883 6.3705406 -1.9403868 128.92999
5.6964746 7.0521598 -1.9269255 128.92999
6.2528644 7.7409625 -1.8748502 128.92999
7.0236454 8.6425934 -1.8296921 129.10001
6.7587514 8.3166418 -1.5061313 129.10001
8.3612823 10.288556 -1.5503795 129.10001
9.485796 11.672269 -1.4032255 129.10001
10.570802 13.007369 -1.1720483 129.10001
2.270035 2.7932775 -1.6025424 129.10001
11.525058 14.181581 -0.85219723 129.10001
2.5454485 3.1321735 -1.68584 129.10001
24.224037 29.807671 -0.89175874 129.10001
2.500294 3.076611 -1.5480733 129.10001
11.97275 14.732465 0 129.10001
2.5116143 3.0905406 -1.4494814 129.10001
2.7376919 3.3687291 -1.466776 129.10001
2.7128205 3.3381248 -1.3422236 129.10001
45.433941 55.906448 5.0375333 129.10001
4.3164606 5.3114038 -1.962538 129.10001
4.7198582 5.8077841 -1.9591532 129.10001
5.157403 6.3461828 -1.93762 129.10001
5.7149062 7.0321908 -1.9260939 129.10001
6.2795234 7.7269516 -1.8759611 129.10001
7.0440059 8.6183624 -1.8287194 129.25999
6.7882161 8.3054028 -1.5075231 129.25999
8.3635817 10.232867 -1.5455012 129.25999
10.504814 12.852671 -1.1607478 129.25999
2.2523887 2.7558043 -1.584646 129.25999
11.63036 14.229779 -0.8570419 129.25999
2.513309 3.0750408 -1.6588603 129.25999
24.338814 29.778612 -0.89291924 129.25999
2.5183077 3.0811567 -1.5538931 129.25999
11.892338 14.550311 0 129.25999
2.8425491 3.4778671 -1.6348563 129.25999
2.6895328 3.2906513 -1.4360448 129.25999
2.8634939 3.5034935 -1.4119263 129.25999
4.3239765 5.2903976 -1.9592303 129.25999
4.7458534 5.8065658 -1.9632052 129.25999
5.1874204 6.3468246 -1.9422312 129.25999
5.7369976 7.0192337 -1.9269255 129.25999
6.3072953 7.7169948 -1.8778125 129.25999
7.0474668 8.564477 -1.8222346 129.45
8.1245003 9.8733492 -1.797003 129.45
6.8096113 8.2754221 -1.253266 129.45
10.543865 12.813498 -1.5481369 129.45
9.6764574 11.759376 -1.0649023 129.45
2.2742853 2.7638392 -1.5935942 129.45
11.504841 13.981329 -0.8443712 129.45
2.5938499 3.1521921 -1.7051111 129.45
2.431443 2.9548259 -1.4942398 129.45
2.9496 3.5845196 -1.6895795 129.45
38.282188 46.522667 2.8096328 129.45
2.9442441 3.5780108 -1.445884 129.45
4.3573766 5.2953291 -1.9663969 129.45
4.7638531 5.7893019 -1.9626987 129.45
5.2245145 6.3491235 -1.9482257 129.45
5.7602425 7.0001702 -1.9269255 129.45
6.3166165 7.6763072 -1.8729986 129.45
7.0866904 8.5602522 -1.8258013 129.62
6.8187957 8.2366524 -1.5027912 129.62
6.6808581 8.0700331 -1.2251576 129.62
10.519614 12.706995 -1.5390335 129.62
10.324545 12.471364 -1.1321476 129.62
2.284806 2.7598939 -1.5952212 129.62
10.209846 12.332816 -0.74663919 129.62
2.4078341 2.9085038 -1.5771507 129.62
13.073008 15.791326 -0.47596055 129.62
2.3760462 2.870106 -1.4549561 129.62
11.913379 14.390571 0 129.62
2.6881697 3.2471304 -1.5343024 129.62
38.434071 46.425804 2.8106577 129.62
3.9592762 4.7825427 -1.9373773 129.62
39.26635 47.431141 4.305788 129.62
4.3755212 5.2853389 -1.9674995 129.62
4.777308 5.7706709 -1.9611793 129.62
5.2185092 6.3036122 -1.9390033 129.62
5.78473 6.9875693 -1.9281731 129.62
6.3393645 7.6575317 -1.8729986 129.62
6.8760509 8.2528925 -1.7648439 129.8
6.7787147 8.1360664 -1.4883171 129.8
6.7379665 8.0871582 -1.2309651 129.8
10.545461 12.657055 -1.5369899 129.8
2.3612986 2.8341184 -1.6424025 129.8
11.714079 14.059674 -0.8534084 129.8
2.3673446 2.8413754 -1.5447751 129.8
12.980487 15.579664 -0.47080776 129.8
2.4184418 2.902704 -1.4753255 129.8
28.257069 33.915188 1.0248958 129.8
3.9828362 4.7803488 -1.9415476 129.8
39.300224 47.169594 4.293232 129.8
4.3797975 5.2567964 -1.9619867 129.8
4.7966518 5.7571206 -1.9616858 129.8
5.2706757 6.3260612 -1.9509925 129.8
5.8054008 6.9678588 -1.9277571 129.8
6.3545837 7.627008 -1.8704065 129.8
13.194788 15.836876 3.8837504 129.8
6.8903656 8.220355 -1.7622499 129.97
6.8778892 8.2054701 -1.5047395 129.97
6.6560178 7.940773 -1.2116841 129.97
10.59704 12.642498 -1.5390335 129.97
10.872179 12.970745 -1.1834884 129.97
11.4811 13.697202 -0.83347064 129.97
2.3710227 2.8286812 -1.5416918 129.97
12.494904 14.90669 -0.45158923 129.97
2.4785047 2.9569097 -1.5066069 129.97
11.904705 14.202571 0 129.97
2.6005061 3.1024599 -1.4734228 129.97
3.99087 4.7611942 -1.9385688 129.97
4.4015503 5.2511449 -1.964743 129.97
4.8099837 5.7384148 -1.9601662 129.97
5.2756705 6.2939887 -1.9459201 129.97
5.8273063 6.9521022 -1.9281731 129.97
6.3834982 7.6156516 -1.8722579 129.97
13.213943 15.764519 3.8756037 129.97
6.9349179 8.2267332 -1.7677621 130.13
6.8241858 8.0953751 -1.4880388 130.13
8.4552555 10.030274 -1.5341184 130.13
10.684925 12.675281 -1.5466508 130.13
10.73476 12.734399 -1.1646541 130.13
2.4494164 2.9056861 -1.6920245 130.13
11.785849 13.98128 -0.8527562 130.13
2.4134068 2.8629689 -1.5640464 130.13
13.215627 15.677394 -0.47605339 130.13
2.4075027 2.8559649 -1.4585935 130.13
11.878578 14.091284 0 130.13
2.6358085 3.1267986 -1.4884716 130.13
2.6182868 3.1060133 -1.3726616 130.13
4.0029197 4.7485714 -1.9379731 130.13
39.526241 46.889069 4.2883492 130.13
4.4298272 5.255002 -1.9708071 130.13
39.767174 47.174881 5.7563276 130.13
4.8234959 5.7220016 -1.9591532 130.13
5.2869544 6.2717919 -1.9436146 130.13
5.8466973 6.9358025 -1.9281731 130.13
6.4022064 7.59479 -1.8715174 130.13
13.232578 15.697502 3.8681977 130.13
6.9183021 8.1606684 -1.7577106 130.28999
6.804502 8.026433 -1.4788533 130.28999
6.896801 8.1353064 -1.2472262 130.28999
10.697101 12.618052 -1.5433066 130.28999
10.495475 12.380219 -1.1349379 130.28999
2.4173501 2.85145 -1.6643664 130.28999
11.091042 13.082735 -0.79983741 130.28999
2.4118452 2.8449566 -1.5578796 130.28999
2.439563 2.8776522 -1.473143 130.28999
27.61224 32.570759 0 130.28999
3.7284558 4.3980002 -1.9482319 130.28999
4.0173993 4.738831 -1.9385688 130.28999
39.633804 46.751114 4.2858377 130.28999
4.4295664 5.2250137 -1.9641918 130.28999
39.906483 47.072762 5.757442 130.28999
4.8394556 5.7085099 -1.9591532 130.28999
5.3434606 6.3030219 -1.9579092 130.28999
5.8622479 6.9149718 -1.9269255 130.28999
6.4106808 7.5618906 -1.8678143 130.28999
13.277633 15.661988 3.8685679 130.28999
6.8799853 8.0611238 -1.7411743 130.48
6.7783661 7.942059 -1.4674412 130.48
10.724665 12.565848 -1.541263 130.48
10.564966 12.378733 -1.1380072 130.48
2.4469564 2.8670437 -1.6781954 130.48
12.807437 15.006186 -0.92002267 130.48
2.4248602 2.8411543 -1.5601921 130.48
12.612815 14.778152 -0.45107859 130.48
2.4031341 2.8156981 -1.4454988 130.48
27.884989 32.672215 0 130.48
2.7146428 3.1806858 -1.5219896 130.48
27.890455 32.678619 0.99746066 130.48
4.0306129 4.7225785 -1.9373773 130.48
4.4481168 5.2117586 -1.964743 130.48
4.8646393 5.6997886 -1.9616858 130.48
5.3605423 6.280827 -1.9565259 130.48
5.8876863 6.8984699 -1.9277571 130.48
6.4357214 7.5405903 -1.8678143 130.48
13.376706 15.673185 3.8822691 130.48
6.8370194 7.9628139 -1.7243139 130.64999
6.8148026 7.9369388 -1.4702246 130.64999
10.816385 12.597427 -1.5490659 130.64999
2.5363882 2.9540339 -1.7335116 130.64999
2.4789636 2.8871536 -1.5894842 130.64999
12.80249 14.910567 -0.45627779 130.64999
2.4794409 2.8877096 -1.4862376 130.64999
27.800707 32.378414 0 130.64999
2.8024232 3.2638745 -1.5657682 130.64999
2.7401757 3.1913772 -1.4213195 130.64999
4.0446072 4.7105985 -1.9373773 130.64999
4.4673181 5.2029133 -1.9663969 130.64999
39.826557 46.38446 5.7037506 130.64999
4.8802691 5.6838617 -1.9611793 130.64999
5.3804221 6.2663708 -1.956987 130.64999
5.9068542 6.8794861 -1.9273413 130.64999
6.4529452 7.5154972 -1.8663331 130.64999
13.444917 15.658777 3.8885643 130.64999
6.8915772 7.9783373 -1.7320956 130.82001
6.9988585 8.1025352 -1.5047395 130.82001
7.1444616 8.2711 -1.2781223 130.82001
10.87324 12.587884 -1.5518527 130.82001
10.738659 12.43208 -1.1487496 130.82001
2.62994 3.0446658 -1.7912682 130.82001
2.3717082 2.7457123 -1.515483 130.82001
2.5586314 2.9621119 -1.5284313 130.82001
28.120213 32.5546 0 130.82001
2.7113559 3.1389203 -1.5096769 130.82001
41.117462 47.601433 1.4603767 130.82001
13.651099 15.803794 0.97387314 130.82001
4.0635581 4.7043567 -1.9397603 130.82001
13.649599 15.802058 1.4601425 130.82001
4.485249 5.1925454 -1.9674995 130.82001
13.645897 15.797772 1.9475724 130.82001
4.8945823 5.6664286 -1.9601662 130.82001
13.609797 15.755979 2.434751 130.82001
5.4002633 6.251852 -1.9574481 130.82001
13.609323 15.75543 2.9259753 130.82001
5.9272399 6.8619299 -1.9273413 130.82001
13.602544 15.747582 3.4187975 130.82001
6.4649377 7.4844189 -1.8633707 130.82001
13.577396 15.71847 3.9133747 130.82001
6.9476824 7.992394 -1.7398773 131
7.0970421 8.1642132 -1.520327 131
7.0570292 8.1181831 -1.257912 131
7.3448324 8.4492626 -1.0444769 131
2.6311014 3.026736 -1.7855738 131
10.507831 12.087876 -0.74691868 131
12.92744 14.871318 -0.45748475 131
2.5178127 2.8964121 -1.4986048 131
13.684079 15.741733 0 131
13.668587 15.72391 0.48371294 131
3.0840611 3.5478065 -1.5884205 131
13.679709 15.736706 0.97238243 131
4.0695491 4.6814809 -1.9355901 131
13.654673 15.707904 1.455399 131
4.5128913 5.1914878 -1.9724609 131
13.687621 15.745807 1.9464576 131
4.9136291 5.6524839 -1.9606727 131
13.667048 15.72214 2.4361448 131
5.4262614 6.2421994 -1.9597538 131
13.654855 15.708114 2.9251401 131
5.9346504 6.827034 -1.9227673 131
13.657128 15.71073 3.4200945 131
6.4755244 7.4492388 -1.8596677 131
13.678288 15.73507 3.9281869 131
6.7854719 7.7646437 -1.6941594 131.14999
7.0076146 8.0188427 -1.4966675 131.14999
6.9867573 7.9949751 -1.2416509 131.14999
7.1690607 8.2035856 -1.0164236 131.14999
10.992571 12.578845 -1.168142 131.14999
2.5452383 2.9125266 -1.7221229 131.14999
12.807189 14.655319 -0.90763152 131.14999
2.3522658 2.6917074 -1.4931285 131.14999
2.5008686 2.8617542 -1.4840552 131.14999
13.723928 15.704348 0 131.14999
13.739966 15.7227 0.48478064 131.14999
4.0905857 4.6808743 -1.9397603 131.14999
4.5087562 5.1593881 -1.964743 131.14999
4.9284105 5.6396008 -1.9606727 131.14999
40.700966 46.574284 7.2331686 131.14999
5.4413042 6.2265067 -1.9592927 131.14999
5.9280443 6.7834854 -1.9148667 131.14999
6.4924178 7.4293003 -1.858927 131.14999
13.724608 15.705127 3.9296679 131.14999
6.7563958 7.6825275 -1.6808655 131.33
7.03408 7.9982753 -1.4969459 131.33
7.1272826 8.1042538 -1.2620935 131.33
7.1855917 8.1705551 -1.015123 131.33
2.3963108 2.7247846 -1.6155579 131.33
11.098423 12.619738 -0.7837196 131.33
2.3241479 2.6427302 -1.4700031 131.33
12.796327 14.550381 -0.44987163 131.33
2.4877009 2.828702 -1.4709606 131.33
3.7939031 4.3139515 -1.9411894 131.33
40.396042 45.933323 2.8525827 131.33
4.1128359 4.6766019 -1.9433348 131.33
4.5401778 5.1625218 -1.9713584 131.33
4.9435482 5.6211839 -1.9596597 131.33
5.4248524 6.1684632 -1.9463813 131.33
5.9829159 6.8030233 -1.9256781 131.33
6.5105333 7.4029636 -1.8574458 131.33
13.77388 15.661932 3.9296679 131.33
6.9033928 7.8028665 -1.7116684 131.5
6.9344201 7.8379364 -1.4707813 131.5
6.8551359 7.7483215 -1.2098256 131.5
11.087843 12.532526 -1.5611418 131.5
10.582705 11.961572 -1.1168011 131.5
2.3281128 2.6314528 -1.5643091 131.5
12.81175 14.48105 -0.90166879 131.5
2.2867334 2.584682 -1.4414818 131.5
12.97723 14.66809 -0.45469946 131.5
2.5207722 2.8492146 -1.4855101 131.5
2.8492885 3.2205346 -1.5650842 131.5
3.8242631 4.3225431 -1.9501526 131.5
40.529503 45.810272 2.8523965 131.5
4.1178379 4.6543689 -1.9391646 131.5
4.5414624 5.1331897 -1.9652944 131.5
40.845432 46.167362 5.7509398 131.5
4.9461021 5.5905519 -1.9540882 131.5
5.4818168 6.1960669 -1.9602149 131.5
6.0069633 6.7896371 -1.9269255 131.5
6.5402837 7.392446 -1.8596677 131.5
13.860662 15.666628 3.9411476 131.5
6.9212656 7.7764525 -1.7103715 131.67
6.958962 7.8188062 -1.4710597 131.67
11.110415 12.483211 -1.5590982 131.67
2.406364 2.7036927 -1.6114906 131.67
2.3042078 2.5889142 -1.4476486 131.67
13.06589 14.680303 -0.45627779 131.67
2.4920568 2.7999737 -1.4636858 131.67
3.5735393 4.0150833 -1.9563552 131.67
3.834552 4.3083467 -1.9488722 131.67
40.713062 45.743542 2.8557503 131.67
4.1379762 4.6492615 -1.9421433 131.67
4.5707331 5.1354895 -1.9713584 131.67
41.066967 46.141171 5.7628298 131.67
4.9716725 5.5859685 -1.9576337 131.67
5.4962955 6.1754136 -1.9588314 131.67
6.0231805 6.7674003 -1.9256781 131.67
6.5543489 7.3641992 -1.8574458 131.67
13.935831 15.657732 3.9492941 131.67
6.9101105 7.7149782 -1.7016169 131.85001
7.0720234 7.89575 -1.4897089 131.85001
7.0931878 7.9193792 -1.2432771 131.85001
11.133635 12.430444 -1.5568688 131.85001
2.3880279 2.6661777 -1.5935942 131.85001
11.107197 12.400928 -0.77635938 131.85001
2.4933267 2.7837415 -1.5609629 131.85001
13.137292 14.66748 -0.45715982 131.85001
2.5592601 2.8573546 -1.4978772 131.85001
3.577358 3.9940372 -1.9515669 131.85001
3.8493323 4.2976904 -1.9495125 131.85001
4.151288 4.6348166 -1.9415476 131.85001
4.5932574 5.1282649 -1.9741148 131.85001
5.0046868 5.5876169 -1.9637117 131.85001
5.4987893 6.1392708 -1.952837 131.85001
6.0496321 6.7542734 -1.9273413 131.85001
6.5669613 7.3318596 -1.8544834 131.85001
14.017735 15.650476 3.9585519 131.85001
6.9633555 7.7281632 -1.7090745 132.02
7.2841983 8.0842447 -1.272547 132.02
11.118481 12.339659 -1.5496233 132.02
12.93717 14.358101 -1.3514619 132.02
11.202785 12.433222 -0.78045875 132.02
2.5065167 2.7818155 -1.5640464 132.02
13.232951 14.686369 -0.45897025 132.02
11.794651 13.090096 0 132.02
2.8280776 3.1386943 -1.5377226 132.02
3.8658719 4.290473 -1.9514332 132.02
41.422352 45.971901 2.8857501 132.02
4.1662993 4.6238976 -1.9421433 132.02
4.5942969 5.0989032 -1.9680507 132.02
41.124115 45.640907 5.7316184 132.02
5.0173583 5.5684309 -1.9621922 132.02
5.533916 6.1417236 -1.9588314 132.02
6.0709553 6.7377477 -1.9277571 132.02
6.5992117 7.3240237 -1.8574458 132.02
6.9982052 7.7179451 -1.7116684 132.2
7.0136943 7.7350273 -1.4674412 132.2
7.2521825 7.9980431 -1.2625581 132.2
7.2125139 7.9542947 -1.0017467 132.2
13.007677 14.345469 -1.3541126 132.2
2.3981335 2.644773 -1.5895268 132.2
12.88706 14.212447 -0.89468127 132.2
2.4854922 2.7411158 -1.5455461 132.2
2.4702966 2.7243574 -1.4360416 132.2
11.784666 12.996675 0 132.2
3.8793318 4.278307 -1.9514332 132.2
41.657829 45.942184 2.8920856 132.2
4.1820879 4.6122003 -1.9427391 132.2
4.6206241 5.0958381 -1.9724609 132.2
41.397049 45.654583 5.749639 132.2
5.0335274 5.5512075 -1.9616858 132.2
5.5466471 6.1170998 -1.9565259 132.2
6.0855217 6.7113957 -1.9256781 132.2
6.6261487 7.3076239 -1.8585567 132.2
6.9705338 7.6417403 -1.6993473 132.37
7.0739856 7.7551537 -1.4752349 132.37
7.0884624 7.7710242 -1.2300359 132.37
11.176206 12.252384 -1.5472081 132.37
12.986989 14.237533 -1.3475555 132.37
2.3665686 2.59445 -1.5634956 132.37
12.883396 14.123963 -0.89151365 132.37
2.4712276 2.709187 -1.5316708 132.37
11.755784 12.887772 0 132.37
2.8281996 3.1005325 -1.527462 132.37
3.8881779 4.2625785 -1.9495125 132.37
41.306572 45.284065 2.8583591 132.37
4.2021871 4.6068239 -1.9457178 132.37
42.077629 46.129368 4.3660579 132.37
4.6240625 5.0693226 -1.9674995 132.37
5.055192 5.541966 -1.9637117 132.37
5.5595264 6.0948644 -1.9546814 132.37
6.1040897 6.6918645 -1.9252622 132.37
6.6557488 7.2966437 -1.8607786 132.37
6.9331474 7.5582538 -1.6850806 132.53
7.228302 7.8800197 -1.2504784 132.53
8.9664173 9.774847 -1.2375064 132.53
13.19528 14.384993 -1.3649946 132.53
2.3725693 2.5864847 -1.5626822 132.53
13.122659 14.305824 -0.90530229 132.53
2.3889635 2.604357 -1.4761699 132.53
2.4305356 2.6496773 -1.4040326 132.53
2.628222 2.8651876 -1.3137602 132.53
41.357243 45.08609 2.8531418 132.53
3.5813606 3.904263 -1.6532048 132.53
42.227863 46.03521 4.3682899 132.53
4.6330028 5.0507231 -1.9652944 132.53
5.0641088 5.5206985 -1.9611793 132.53
5.5607386 6.0621057 -1.9491479 132.53
6.1214309 6.6733513 -1.9248464 132.53
6.6867275 7.2896161 -1.863741 132.53
6.9782763 7.559638 -1.6902685 132.71001
6.9707665 7.5515022 -1.4443384 132.71001
7.3271284 7.9375529 -1.263255 132.71001
9.0457067 9.7993059 -1.2441946 132.71001
13.293184 14.400641 -1.3704357 132.71001
2.4091871 2.6098969 -1.581392 132.71001
12.999505 14.082496 -0.89374965 132.71001
2.3470628 2.5425971 -1.4453361 132.71001
13.327479 14.437795 -0.45618495 132.71001
2.4325294 2.6351838 -1.4003952 132.71001
2.3901832 2.5893097 -1.2825755 132.71001
2.6307843 2.8499553 -1.3105589 132.71001
41.417374 44.867863 2.8475518 132.71001
3.486124 3.7765536 -1.6037576 132.71001
4.6488471 5.0361433 -1.9652944 132.71001
5.0814276 5.5047622 -1.9611793 132.71001
5.5757957 6.0403161 -1.9477646 132.71001
6.1410384 6.6526499 -1.9244306 132.71001
6.7202606 7.2801266 -1.8667034 132.71001
7.03022 7.5707154 -1.6974018 132.88
6.9217143 7.4538674 -1.4295861 132.88
8.9659519 9.6552696 -1.5408552 132.88
9.1709499 9.876029 -1.2573853 132.88
13.234032 14.251488 -1.3599722 132.88
2.3485401 2.5290999 -1.536651 132.88
13.064342 14.068751 -0.89533347 132.88
2.3646429 2.5464406 -1.4515028 132.88
13.382504 14.411374 -0.45660275 132.88
11.71897 12.619946 0 132.88
2.6075876 2.8080635 -1.3947581 132.88
41.570709 44.766735 2.8489492 132.88
3.490818 3.7591984 -1.6007789 132.88
4.6598444 5.0181012 -1.9636406 132.88
51.246479 55.186398 7.0261602 132.88
5.1056376 5.498168 -1.9642183 132.88
5.5870719 6.0166154 -1.945459 132.88
6.1700687 6.6444345 -1.9273413 132.88
6.7445064 7.2630358 -1.867444 132.88
7.0458846 7.5399404 -1.6954564 133.06
7.0424581 7.536274 -1.449627 133.06
9.0382853 9.6720476 -1.5480565 133.06
9.2699127 9.9199171 -1.2666744 133.06
13.4531 14.396429 -1.3778299 133.06
2.3202972 2.482996 -1.5130603 133.06
13.165765 14.088946 -0.89924645 133.06
2.3360901 2.4998963 -1.4291483 133.06
13.353993 14.290373 -0.45409599 133.06
2.3506382 2.5154643 -1.3443794 133.06
31.1313 33.31422 0 133.06
2.7626786 2.9563971 -1.4727387 133.06
52.401661 56.076054 1.7818927 133.06
41.930752 44.87093 2.8639491 133.06
3.6042869 3.8570187 -1.6472473 133.06
44.982613 48.136784 4.6069965 133.06
4.6887126 5.0174842 -1.9691533 133.06
51.487579 55.097878 7.0354495 133.06
5.1281691 5.4877553 -1.9662442 133.06
5.6006308 5.9933457 -1.9436146 133.06
6.1802268 6.6135831 -1.9240148 133.06
6.7485037 7.2217069 -1.8622597 133.06
7.0438938 7.4931188 -1.68962 133.23
6.995605 7.44175 -1.4354314 133.23
8.9240818 9.4932156 -1.5236648 133.23
9.0988064 9.6790838 -1.2393641 133.23
13.197855 14.03955 -1.347416 133.23
2.3889742 2.5413313 -1.5529205 133.23
13.170564 14.010518 -0.89673096 133.23
2.4142826 2.5682535 -1.4723157 133.23
13.475765 14.335184 -0.45678842 133.23
11.673924 12.41843 0 133.23
2.797183 2.9755738 -1.4864196 133.23
3.48452 3.7067456 -1.7190282 133.23
41.880341 44.551266 2.8514647 133.23
3.6484067 3.8810842 -1.6621411 133.23
42.669601 45.390862 4.3562918 133.23
4.6969953 4.9965463 -1.9663969 133.23
5.1431041 5.4711061 -1.9657377 133.23
5.6197219 5.9781203 -1.9440757 133.23
6.2038422 6.599493 -1.9252622 133.23
6.7550931 7.1858997 -1.8581865 133.23
7.0294833 7.4334702 -1.6808655 133.39999
7.0176539 7.4209609 -1.4354314 133.39999
8.8102617 9.3165913 -1.4995055 133.39999
11.207199 11.851281 -1.5217557 133.39999
2.370141 2.5063539 -1.5358375 133.39999
13.191485 13.949605 -0.89533347 133.39999
2.407944 2.5463293 -1.4638363 133.39999
13.584182 14.36487 -0.45901668 133.39999
2.4244058 2.5637372 -1.3778434 133.39999
31.504337 33.314903 0 133.39999
3.6074629 3.814785 -1.7740884 133.39999
3.6480999 3.8577576 -1.6567793 133.39999
45.479946 48.093697 4.6286211 133.39999
4.6959481 4.965826 -1.9597816 133.39999
5.1633024 5.4600391 -1.9672573 133.39999
5.6200514 5.943038 -1.9380811 133.39999
6.2139869 6.5711069 -1.9223515 133.39999
6.775034 7.1643972 -1.8578161 133.39999
7.0732718 7.4354591 -1.6860534 133.57001
7.6097383 7.9993949 -1.2911311 133.57001
9.3249025 9.8023844 -1.2622156 133.57001
12.966031 13.629957 -1.3154676 133.57001
2.352381 2.4728348 -1.5195681 133.57001
13.268619 13.948039 -0.8977558 133.57001
2.3849609 2.5070829 -1.4453361 133.57001
13.512361 14.204262 -0.45516369 133.57001
2.5180335 2.6469696 -1.4265844 133.57001
11.655053 12.25185 0 133.57001
2.7111633 2.8499885 -1.4316963 133.57001
31.917009 33.551319 1.075124 133.57001
3.497313 3.6763933 -1.7145466 133.57001
42.470322 44.645016 2.8735452 133.57001
3.6397915 3.8261671 -1.6478431 133.57001
45.297916 47.617397 4.595696 133.57001
3.5803676 3.7637005 -1.4895443 133.57001
5.1781464 5.4432936 -1.9667507 133.57001
5.6403427 5.9291568 -1.9390033 133.57001
6.2321081 6.5512233 -1.9219357 133.57001
6.7772961 7.1243277 -1.8526318 133.57001
7.1103115 7.4301238 -1.68962 133.74001
7.2628565 7.5895305 -1.4763483 133.74001
7.4013324 7.7342343 -1.2518722 133.74001
11.234648 11.739967 -1.5159963 133.74001
12.64639 13.215208 -1.2790548 133.74001
2.3521285 2.4579241 -1.5146873 133.74001
13.20773 13.801797 -0.89086145 133.74001
2.3923891 2.4999957 -1.4453361 133.74001
2.6662743 2.7861998 -1.5058795 133.74001
31.695944 33.121586 0 133.74001
2.6845241 2.8052704 -1.4132272 133.74001
3.6667171 3.831641 -1.792015 133.74001
3.660368 3.8250065 -1.6520133 133.74001
45.236225 47.270893 4.5751877 133.74001
52.49995 54.861328 7.0843105 133.74001
5.1902614 5.4237123 -1.9652313 133.74001
5.6458006 5.8997412 -1.9348533 133.74001
6.2515187 6.5327034 -1.9219357 133.74001
6.8133521 7.1198077 -1.8567052 133.74001
7.0721889 7.3490915 -1.6756777 133.89999
7.273036 7.5578027 -1.4741215 133.89999
8.6749735 9.0146313 -1.4630342 133.89999
9.3701591 9.7370358 -1.2607293 133.89999
11.938962 12.406417 -1.2039968 133.89999
2.3919227 2.4855754 -1.5358375 133.89999
13.17557 13.691443 -0.88610995 133.89999
2.422395 2.5172408 -1.4592112 133.89999
13.853209 14.395614 -0.46384451 133.89999
2.6740444 2.7787433 -1.5058795 133.89999
31.78138 33.025738 0 133.89999
2.6910443 2.7964089 -1.4125432 133.89999
3.6235356 3.7654107 -1.7657653 133.89999
45.428082 47.20676 3.0552206 133.89999
3.5651271 3.7047153 -1.6043534 133.89999
45.362522 47.138634 4.5746298 133.89999
5.2040453 5.4078031 -1.9647248 133.89999
5.6743984 5.8965726 -1.9390033 133.89999
6.2683802 6.5138111 -1.9215199 133.89999
6.8318448 7.0993376 -1.8563349 133.89999
7.0856314 7.3169131 -1.6734079 134.08
7.147943 7.3812585 -1.4440601 134.08
8.5954628 8.8760271 -1.4449147 134.08
11.250089 11.617303 -1.5087508 134.08
2.4111588 2.4898615 -1.5431588 134.08
13.264382 13.697345 -0.88918447 134.08
2.4136014 2.4923837 -1.4491903 134.08
13.561756 14.004425 -0.45261049 134.08
11.563295 11.940732 0 134.08
3.5878952 3.7050076 -1.7427169 134.08
3.6126087 3.7305276 -1.6204386 134.08
45.611706 47.100517 4.5848141 134.08
5.2183166 5.3886476 -1.9637117 134.08
5.6807108 5.8661346 -1.9348533 134.08
6.2956176 6.5011129 -1.923599 134.08
6.8390746 7.0623088 -1.8522615 134.08
7.1223569 7.3087511 -1.6766504 134.25999
7.0826325 7.2679873 -1.4262459 134.25999
8.4721889 8.6939087 -1.4195938 134.25999
8.6042252 8.8294001 -1.150188 134.25999
11.987436 12.301151 -1.201067 134.25999
2.4470224 2.5110619 -1.5610552 134.25999
12.608796 12.938772 -0.84250784 134.25999
2.4033875 2.466285 -1.4383985 134.25999
11.660421 11.965578 -0.3878988 134.25999
2.579632 2.6471419 -1.4433165 134.25999
31.862633 32.696487 0 134.25999
47.144047 48.377823 1.5683069 134.25999
3.5743918 3.6679349 -1.7305524 134.25999
3.625643 3.7205274 -1.6210344 134.25999
4.7806869 4.9057989 -1.9641918 134.25999
5.2433219 5.3805413 -1.9667507 134.25999
5.7113357 5.8608031 -1.9390033 134.25999
6.3146453 6.4799013 -1.9231831 134.25999
6.8584843 7.0379729 -1.8515209 134.25999
7.0846043 7.2269859 -1.662708 134.42999
7.3980932 7.5467753 -1.4852554 134.42999
8.4937754 8.6644773 -1.4188969 134.42999
8.662447 8.8365393 -1.154461 134.42999
11.959636 12.199992 -1.1946493 134.42999
2.4442298 2.4933524 -1.5545474 134.42999
12.65692 12.911291 -0.84316003 134.42999
2.4843333 2.5342617 -1.4823366 134.42999
11.674877 11.909511 -0.38720247 134.42999
32.099514 32.744629 0 134.42999
3.6170928 3.6897867 -1.745918 134.42999
3.6500313 3.7233872 -1.6269919 134.42999
45.81757 46.73838 4.5767221 134.42999
4.8167548 4.913559 -1.9730122 134.42999
5.2511363 5.3566704 -1.9637117 134.42999
5.7205257 5.8354931 -1.9362366 134.42999
6.3256269 6.452755 -1.9206882 134.42999
6.8545704 6.9923291 -1.8448554 134.42999
6.9230995 7.0204453 -1.6199082 134.60001
8.4455214 8.5642738 -1.406585 134.60001
11.991578 12.160192 -1.1942308 134.60001
2.4811237 2.5160108 -1.5732573 134.60001
11.773546 11.939095 -0.7819494 134.60001
2.5307159 2.5663004 -1.5054621 134.60001
27.515581 27.902477 -0.90981674 134.60001
2.5874465 2.6238284 -1.4389515 134.60001
32.00835 32.45842 0 134.60001
3.6870074 3.7388504 -1.9112085 134.60001
3.4723668 3.5211918 -1.6710107 134.60001
45.87339 46.518417 4.568491 134.60001
4.8232131 4.8910322 -1.9697045 134.60001
46.797501 47.455521 6.2180004 134.60001
5.2670069 5.3410664 -1.9637117 134.60001
5.6927209 5.7727666 -1.9210198 134.60001
6.3378763 6.4269934 -1.9186091 134.60001
6.8808069 6.9775581 -1.8463367 134.60001
6.959188 7.0152855 -1.6234748 134.77
8.6883183 8.7583542 -1.7338185 134.77
8.5338497 8.6026402 -1.4170386 134.77
8.9405231 9.0125914 -1.1843722 134.77
11.809815 11.905014 -1.1726063 134.77
2.5284672 2.5488489 -1.598475 134.77
13.898307 14.010341 -0.92030215 134.77
2.6331973 2.6544232 -1.5617338 134.77
22.45429 22.635294 -0.74023867 134.77
2.5978441 2.6187851 -1.4404064 134.77
38.389355 38.698807 0 134.77
3.5869038 3.6158175 -1.8537492 134.77
11.731262 11.825827 0.38673827 134.77
3.6055644 3.6346285 -1.7299122 134.77
46.740456 47.117226 4.6408982 134.77
3.7464108 3.7766104 -1.5253772 134.77
46.908646 47.286774 6.2140989 134.77
5.2855563 5.3281627 -1.9647248 134.77
5.7482004 5.7945361 -1.9339311 134.77
6.3527846 6.4039936 -1.9173616 134.77
6.8710279 6.9264145 -1.83819 134.77
6.8433557 6.8577037 -1.5916992 134.94
8.7254581 8.7437525 -1.7360452 134.94
8.55653 8.5744696 -1.4165739 134.94
11.274087 11.297724 -1.4890577 134.94
11.873272 11.898166 -1.1753966 134.94
2.5398905 2.5452156 -1.6009154 134.94
14.00473 14.034093 -0.92458785 134.94
2.5198283 2.5251112 -1.4900451 134.94
22.418251 22.465254 -0.7368499 134.94
2.6463976 2.6519458 -1.4629583 134.94
11.792072 11.816795 0 134.94
3.5259295 3.5333219 -1.816811 134.94
11.764886 11.789552 0.38669184 134.94
3.6056256 3.6131852 -1.7247903 134.94
3.7194409 3.7272391 -1.6430771 134.94
4.8535099 4.8636856 -1.9702559 134.94
47.020607 47.11919 6.2103834 134.94
5.301342 5.3124566 -1.9647248 134.94
5.7942357 5.8063841 -1.9436146 134.94
6.3676119 6.3809624 -1.9161141 134.94
6.8943253 6.9087796 -1.8389306 134.94
6.9128051 6.8887172 -1.6033719 135.10001
6.9723763 6.9480805 -1.3833807 135.10001
8.7675838 8.7370329 -1.4474699 135.10001
2.5689895 2.5600376 -1.6147444 135.10001
11.861718 11.820385 -0.78092456 135.10001
2.4667375 2.4581418 -1.4545863 135.10001
11.844501 11.803227 -0.38822374 135.10001
2.7184551 2.7089825 -1.4986048 135.10001
38.380684 38.246944 0 135.10001
3.5051639 3.49295 -1.8010781 135.10001
3.4613564 3.449295 -1.6511635 135.10001
45.934086 45.774025 3.0241029 135.10001
3.5486174 3.536252 -1.5632466 135.10001
46.622414 46.459957 4.6025319 135.10001
4.8643494 4.8473992 -1.9691533 135.10001
5.3161564 5.2976317 -1.9647248 135.10001
73.628853 73.372284 12.155635 135.10001
5.8118062 5.7915545 -1.9440757 135.10001
6.385406 6.3631558 -1.9161141 135.10001
6.9094148 6.8853383 -1.8378197 135.10001
6.8472505 6.7782845 -1.5829448 135.28999
8.6956644 8.6080809 -1.7196229 135.28999
8.5734549 8.4871035 -1.4107664 135.28999
8.7077732 8.6200686 -1.1431282 135.28999
8.9341316 8.8441467 -0.87907106 135.28999
2.5242276 2.4988034 -1.581392 135.28999
18.074186 17.892143 -1.1860141 135.28999
2.5863562 2.5603063 -1.5201081 135.28999
22.51812 22.291317 -0.73564291 135.28999
2.7486074 2.7209234 -1.5102444 135.28999
32.961185 32.6292 0 135.28999
3.6716614 3.6346805 -1.8804268 135.28999
3.4700825 3.4351318 -1.6498829 135.28999
3.4816284 3.4465613 -1.5286932 135.28999
3.7709675 3.7329862 -1.5215182 135.28999
5.3350697 5.2813349 -1.9652313 135.28999
5.8295965 5.7708807 -1.9436146 135.28999
6.3995204 6.3350644 -1.9140351 135.28999
6.928019 6.8582397 -1.8367088 135.28999
6.8647456 6.7577529 -1.5826205 135.45
8.7380171 8.6018267 -1.7232413 135.45
8.6438379 8.5091162 -1.4184324 135.45
8.6793041 8.5440292 -1.1362542 135.45
2.4283333 2.3904855 -1.5171276 135.45
18.20808 17.924292 -1.1915109 135.45
2.5895503 2.54919 -1.5177956 135.45
22.623028 22.270428 -0.73703557 135.45
2.5212014 2.4819062 -1.3814808 135.45
33.019394 32.504757 0 135.45
2.4255128 2.3877089 -1.2387969 135.45
3.4877632 3.4334035 -1.6537243 135.45
46.21854 45.498184 3.0244756 135.45
3.4857972 3.431468 -1.5263102 135.45
47.808197 47.063065 4.691123 135.45
3.7731569 3.714349 -1.5182105 135.45
5.3484182 5.2650585 -1.9647248 135.45
5.8484631 5.7573094 -1.9445368 135.45
6.4102159 6.310307 -1.911956 135.45
6.9233332 6.8154268 -1.8304136 135.45
6.9901209 6.8356791 -1.6062901 135.64
7.1437502 6.9859138 -1.4042566 135.64
7.8070793 7.6345873 -1.2769607 135.64
8.7204027 8.5277309 -1.1379262 135.64
11.953556 11.68945 -1.1691185 135.64
2.4832737 2.4284074 -1.5464127 135.64
18.284559 17.880573 -1.1926289 135.64
2.4726422 2.4180107 -1.4445652 135.64
22.55666 22.058285 -0.73248625 135.64
2.4455035 2.3914716 -1.3356496 135.64
33.195637 32.4622 0 135.64
2.4670095 2.4125025 -1.255898 135.64
60.756741 59.41436 1.9729639 135.64
3.5533168 3.4748085 -1.6793337 135.64
3.5217273 3.443917 -1.5370337 135.64
5.3686152 5.249999 -1.9657377 135.64
5.8730884 5.7433262 -1.9463813 135.64
6.4171195 6.2753377 -1.9077977 135.64
6.9402747 6.7869339 -1.8289324 135.64
6.9905605 6.7956495 -1.6017507 135.81
7.2127304 7.0116248 -1.4137204 135.81
10.330871 10.042825 -1.684882 135.81
8.7042589 8.461566 -1.1325384 135.81
2.5481117 2.4770653 -1.5822055 135.81
18.327503 17.816496 -1.1919767 135.81
2.4480472 2.3797908 -1.426065 135.81
22.90731 22.268608 -0.74172413 135.81
2.4686184 2.3997881 -1.3443794 135.81
2.7301967 2.6540735 -1.3858656 135.81
11.662972 11.337785 0.37763962 135.81
3.5894244 3.4893441 -1.6914982 135.81
3.5593092 3.4600687 -1.5489486 135.81
3.591022 3.4908969 -1.4360707 135.81
5.3800068 5.230001 -1.9642183 135.81
5.8775444 5.7136664 -1.9422312 135.81
6.4357104 6.2562699 -1.9077977 135.81
6.9476981 6.7539821 -1.8255997 135.81
7.0050163 6.769393 -1.6004537 135.98
7.1779585 6.9365177 -1.4028648 135.98
8.7823095 8.4869041 -1.1394125 135.98
2.5738442 2.4872692 -1.5935942 135.98
18.363047 17.745378 -1.1908587 135.98
2.465714 2.3827763 -1.4322317 135.98
22.636835 21.875414 -0.73086149 135.98
2.6954353 2.6047704 -1.4636858 135.98
33.645123 32.513424 0 135.98
2.7150848 2.623759 -1.3742369 135.98
11.610292 11.219764 0.37485433 135.98
3.6120243 3.4905288 -1.6972603 135.98
46.865849 45.289452 3.039289 135.98
3.5956452 3.4747005 -1.5602679 135.98
47.032047 45.450058 4.5735135 135.98
3.8004413 3.6726079 -1.5154542 135.98
5.3996744 5.218049 -1.9657377 135.98
5.8930717 5.69485 -1.9417701 135.98
6.4542451 6.2371473 -1.9077977 135.98
6.9493337 6.7155833 -1.8207858 135.98
7.137279 6.8539758 -1.6257446 136.16
6.802588 6.5325699 -1.3254846 136.16
8.8890285 8.5361929 -1.4411979 136.16
8.8563271 8.5047884 -1.1455433 136.16
13.745708 13.200093 -1.3326277 136.16
2.4999394 2.4007082 -1.5431588 136.16
18.431673 17.700056 -1.1916972 136.16
2.4904919 2.3916357 -1.4422526 136.16
22.532387 21.637999 -0.72529089 136.16
2.7022612 2.5949993 -1.4629583 136.16
11.69334 11.229192 0 136.16
2.6934919 2.5865779 -1.3591881 136.16
11.59068 11.130607 0.3730903 136.16
3.6790047 3.5329723 -1.7235099 136.16
3.616183 3.4726443 -1.5644381 136.16
48.746033 46.811134 4.7258615 136.16
4.9587379 4.7619085 -1.9713584 136.16
5.4118543 5.1970391 -1.9642183 136.16
5.9053187 5.6709166 -1.9399257 136.16
6.4653416 6.2087097 -1.9053028 136.16
6.9548035 6.6787434 -1.8167124 136.16
7.1623335 6.8420835 -1.6273657 136.31
8.9073601 8.5090847 -1.149259 136.31
13.819169 13.201271 -1.3363945 136.31
2.4665813 2.356293 -1.5187546 136.31
18.49095 17.664162 -1.1925358 136.31
2.4740591 2.3634362 -1.4291483 136.31
22.523897 21.516785 -0.72320193 136.31
2.6322603 2.5145638 -1.4214921 136.31
11.663404 11.141898 0 136.31
2.6309474 2.5133095 -1.324302 136.31
11.560503 11.043597 0.37118703 136.31
3.6335452 3.4710779 -1.5680127 136.31
3.6241291 3.4620829 -1.4371731 136.31
5.4212446 5.178844 -1.9626987 136.31
5.9131088 5.6487155 -1.93762 136.31
6.4773297 6.1877084 -1.9040552 136.31
6.9537892 6.6428638 -1.8118984 136.31
7.2021618 6.8345966 -1.6312566 136.5
8.9355288 8.4794998 -1.149259 136.5
13.804982 13.100439 -1.330814 136.5
2.7102895 2.5719686 -1.6635529 136.5
18.536383 17.59037 -1.1916972 136.5
2.4658189 2.3399749 -1.4198982 136.5
22.602377 21.448854 -0.72343403 136.5
2.6851797 2.5481403 -1.4454988 136.5
11.627751 11.034324 0 136.5
2.7319689 2.5925417 -1.3708167 136.5
11.544848 10.955652 0.36951584 136.5
3.5253551 3.345437 -1.6422001 136.5
4.9910917 4.7363691 -1.9730122 136.5
5.436985 5.1595058 -1.9621922 136.5
5.9431014 5.6397929 -1.941309 136.5
6.4892993 6.1581149 -1.9015603 136.5
6.990036 6.6332965 -1.8156015 136.5
6.6648769 6.289453 -1.2879078 136.66
7.9764223 7.5271211 -1.282536 136.66
9.0200014 8.5119162 -1.1570619 136.66
13.793627 13.016649 -1.32621 136.66
2.4171453 2.2809906 -1.479708 136.66
18.540388 17.496033 -1.188809 136.66
2.3663094 2.2330184 -1.3590013 136.66
22.605473 21.332134 -0.7216236 136.66
2.6787355 2.5278456 -1.4382241 136.66
11.6047 10.951022 0 136.66
2.9319258 2.7667742 -1.4672664 136.66
11.509959 10.861618 0.36742687 136.66
3.7810395 3.5680583 -1.6222259 136.66
5.001502 4.7197738 -1.9719096 136.66
5.4471502 5.1403193 -1.9606727 136.66
5.953166 5.6178317 -1.9394644 136.66
6.509316 6.1426549 -1.902392 136.66
6.7926874 6.4100642 -1.7596855 136.66
6.9086065 6.4785433 -1.5560327 136.84
8.0232143 7.523766 -1.2862529 136.84
9.1425686 8.5734396 -1.1693237 136.84
13.854827 12.992358 -1.3281633 136.84
2.3749869 2.227143 -1.4496094 136.84
18.599634 17.441799 -1.1890886 136.84
2.4742765 2.3202517 -1.4168148 136.84
22.770098 21.35265 -0.72473383 136.84
2.7016122 2.5334358 -1.4462264 136.84
34.82523 32.657345 0 136.84
2.9570544 2.7729766 -1.475475 136.84
3.5617306 3.3400116 -1.6498829 136.84
3.7991934 3.5626922 -1.6252046 136.84
51.290508 48.097656 4.9168549 136.84
5.0106955 4.6987777 -1.9697045 136.84
5.4646835 5.1245046 -1.9611793 136.84
5.9722052 5.6004329 -1.9399257 136.84
6.5185928 6.1128078 -1.8994812 136.84
6.7787676 6.3168807 -1.5223117 137.02
7.7881279 7.2574658 -1.2449032 137.02
8.9727821 8.3614006 -1.1442429 137.02
12.673874 11.810309 -1.211391 137.02
18.733263 17.456829 -1.1941196 137.02
2.6327689 2.4533792 -1.5031495 137.02
23.233482 21.650415 -0.73731411 137.02
34.790112 32.419609 0 137.02
3.5444822 3.3029709 -1.6370783 137.02
3.8215413 3.5611517 -1.6299706 137.02
51.282261 47.788025 4.901648 137.02
5.4750934 5.1020355 -1.9591532 137.02
5.9997363 5.5909305 -1.9431535 137.02
6.5463514 6.1003008 -1.9019761 137.02
6.8443317 6.3779774 -1.762648 137.02
6.7091637 6.2149291 -1.502533 137.19
7.3446302 6.8035836 -1.40704 137.19
7.9247527 7.340971 -1.263255 137.19
11.413844 10.573036 -1.4515294 137.19
13.925152 12.899346 -1.3273262 137.19
2.5842421 2.3938723 -1.5683765 137.19
18.815754 17.42968 -1.196076 137.19
2.6440983 2.4493191 -1.5054621 137.19
23.49564 21.764818 -0.743581 137.19
2.6924367 2.4940968 -1.4331317 137.19
24.46887 22.666357 0 137.19
2.7050843 2.5058126 -1.342087 137.19
11.458855 10.614731 0.36264545 137.19
2.7341583 2.5327449 -1.2593403 137.19
3.8278887 3.5459051 -1.6281834 137.19
3.8404779 3.5575669 -1.501121 137.19
5.4930463 5.0883975 -1.9601662 137.19
6.0034494 5.5612016 -1.9390033 137.19
6.5601172 6.0768623 -1.9007287 137.19
6.9396439 6.4284306 -1.7822741 137.19
6.7384729 6.2093797 -1.5054511 137.34
8.019907 7.3901973 -1.2753347 137.34
11.41659 10.520179 -1.4483711 137.34
12.719096 11.720414 -1.2094377 137.34
2.4668872 2.2731915 -1.4935369 137.34
18.830467 17.351931 -1.1941196 137.34
2.6206443 2.4148757 -1.4885035 137.34
23.695166 21.834661 -0.74808389 137.34
2.7226918 2.5089107 -1.3475593 137.34
11.442493 10.544047 0.36125281 137.34
2.7310259 2.5165904 -1.2548586 137.34
3.7079899 3.4168448 -1.5733744 137.34
24.034088 22.146973 2.2853615 137.34
5.470778 5.0412216 -1.9475037 137.34
6.0251436 5.5520597 -1.941309 137.34
6.5601788 6.045085 -1.8961546 137.34
6.7179675 6.190484 -1.7211739 137.34
6.5905633 6.0349078 -1.4681634 137.52
7.7342548 7.0821738 -1.4738431 137.52
8.9000101 8.1496429 -1.1258502 137.52
12.838254 11.755851 -1.2172505 137.52
2.5427392 2.3283589 -1.535024 137.52
18.834791 17.246815 -1.1909519 137.52
2.6200516 2.399153 -1.4838784 137.52
23.664845 21.669641 -0.74497366 137.52
