# .PCD v0.7 - Point Cloud Data file format
VERSION 0.7
FIELDS x y z intensity
SIZE 4 4 4 4
TYPE F F F F
COUNT 1 1 1 1
WIDTH 1177
HEIGHT 1
VIEWPOINT 0 0 0 1 0 0 0
POINTS 1177
DATA ascii
2.0851669 -7.5444288 -1.8546187 254.55
2.1877954 -7.9157534 -1.7456266 254.55
2.2843909 -8.2652493 -1.6156372 254.55
2.7057273 -9.8972607 -1.6857291 254.71001
3.0260711 -11.069043 -1.6127379 254.71001
3.6380665 -13.307656 -1.6133332 254.71001
5.7260065 -20.945116 -2.0257874 254.71001
6.4318738 -23.527103 -1.7055458 254.71001
1.2565669 -4.5963869 -2.1215384 254.71001
8.455205 -30.92823 -1.4952348 254.71001
1.33248 -4.8740683 -2.1105762 254.71001
12.836323 -46.953888 -1.1301336 254.71001
1.4276664 -5.2222505 -2.1140511 254.71001
1.5333948 -5.6089935 -2.1164207 254.71001
1.6563599 -6.0587864 -2.1223757 254.71001
1.7857996 -6.5322633 -2.1131234 254.71001
1.9462903 -7.1193209 -2.1163437 254.71001
1.9980062 -7.3084922 -1.9834653 254.71001
2.100528 -7.6835055 -1.8873581 254.71001
2.1507213 -7.8671079 -1.7335677 254.71001
2.5007513 -9.14748 -1.7867178 254.71001
2.6703215 -9.8966513 -1.6841079 254.89999
2.9986351 -11.113436 -1.6177481 254.89999
3.5525181 -13.166218 -1.5947491 254.89999
6.4005966 -23.721664 -1.718102 254.89999
1.2451255 -4.6146402 -2.128046 254.89999
8.2958679 -30.745853 -1.4850796 254.89999
1.3143866 -4.8713331 -2.1074927 254.89999
12.734717 -47.19696 -1.1349615 254.89999
1.410341 -5.2269559 -2.1140511 254.89999
16.260691 -60.264801 0 254.89999
1.5138071 -5.6104188 -2.1150525 254.89999
1.6367527 -6.0660753 -2.1230159 254.89999
1.7651228 -6.5418358 -2.114315 254.89999
1.9196661 -7.1145988 -2.1130359 254.89999
1.9767836 -7.3262858 -1.9865043 254.89999
2.2458866 -8.3236256 -2.0427551 254.89999
2.068053 -7.6645455 -1.6874113 254.89999
2.3398433 -8.6718445 -1.6922902 254.89999
2.4934921 -9.3515244 -1.590078 255.07001
2.9692197 -11.135679 -1.6196965 255.07001
3.5390272 -13.272671 -1.6063641 255.07001
3.5369635 -13.264931 -1.280794 255.07001
6.331727 -23.746334 -1.7185205 255.07001
8.1799002 -30.677673 -1.4806076 255.07001
1.3013537 -4.8805609 -2.1098051 255.07001
12.474083 -46.782459 -1.1240988 255.07001
1.3948262 -5.2311177 -2.1140511 255.07001
16.079235 -60.30312 0 255.07001
1.4981225 -5.6185174 -2.1164207 255.07001
1.6172826 -6.0654125 -2.1210952 255.07001
1.7471807 -6.5525784 -2.1161022 255.07001
1.9049873 -7.1444125 -2.1202025 255.07001
1.9635116 -7.3639002 -1.9951149 255.07001
2.2332134 -8.3753824 -2.0538218 255.07001
2.1108251 -7.9163804 -1.7414683 255.07001
2.396641 -8.9882975 -1.7526498 255.07001
3.6064165 -13.688425 -1.6553798 255.24001
4.9521289 -18.796179 -1.8134364 255.24001
6.7517519 -25.626783 -1.8531505 255.24001
8.1137819 -30.796473 -1.4851729 255.24001
1.286867 -4.8844008 -2.1098051 255.24001
12.348467 -46.869537 -1.1253058 255.24001
1.3788244 -5.2334318 -2.1133237 255.24001
1.4809666 -5.6211205 -2.1157367 255.24001
1.599279 -6.0701842 -2.1210952 255.24001
1.7316225 -6.5725036 -2.1208682 255.24001
1.8867199 -7.1611876 -2.1235101 255.24001
1.9574276 -7.429564 -2.011323 255.24001
2.2617698 -8.5847178 -1.8870065 255.24001
2.2347643 -8.4822159 -1.6526676 255.24001
2.5433483 -9.7710552 -1.6588172 255.41
4.8807878 -18.751049 -1.807677 255.41
6.6771941 -25.652496 -1.853569 255.41
8.0002289 -30.735342 -1.4810735 255.41
1.2737637 -4.8935556 -2.1121178 255.41
1.364229 -5.2411056 -2.1147785 255.41
1.4652287 -5.629127 -2.1171048 255.41
1.5817388 -6.0767365 -2.1217353 255.41
1.7135566 -6.5831552 -2.1226554 255.41
1.865464 -7.1667542 -2.1235101 255.41
1.9543828 -7.5083632 -2.0310767 255.41
2.1815131 -8.3809538 -2.0519774 255.41
2.277683 -8.7504206 -1.9219357 255.41
2.2670178 -8.7094469 -1.6956229 255.41
2.493485 -9.7044506 -1.6461717 255.59
3.4268281 -13.33695 -1.6103133 255.59
4.7584233 -18.519415 -1.7838967 255.59
6.9759016 -27.14967 -1.9601569 255.59
7.9563322 -30.965431 -1.4909492 255.59
1.3463659 -5.2399521 -2.1125963 255.59
1.4466016 -5.6300621 -2.1157367 255.59
1.5621688 -6.0798407 -2.1210952 255.59
1.6895407 -6.575562 -2.1184852 255.59
1.8434182 -7.1744413 -2.1240613 255.59
1.9510076 -7.5931711 -2.0523498 255.59
2.1096478 -8.2105865 -2.0086322 255.59
2.1800764 -8.4846888 -1.8620571 255.59
2.4142582 -9.3961058 -1.8278215 255.59
2.4355528 -9.5970325 -1.6267172 255.75999
3.4136279 -13.451032 -1.6228576 255.75999
4.725987 -18.62224 -1.7924428 255.75999
6.8850102 -27.129639 -1.9572271 255.75999
7.8393579 -30.890142 -1.4861976 255.75999
1.3312711 -5.2457299 -2.1133237 255.75999
1.4308152 -5.6379728 -2.1171048 255.75999
1.545521 -6.0899582 -2.1230159 255.75999
1.6695536 -6.5786958 -2.1178894 255.75999
1.8244877 -7.1891966 -2.1268179 255.75999
1.9484588 -7.677691 -2.0736229 255.75999
2.06565 -8.1394701 -1.9897264 255.75999
2.1322751 -8.4019995 -1.8425134 255.75999
2.3307705 -9.1841497 -1.7852365 255.75999
2.5345337 -10.10533 -1.7116684 255.92
3.0103977 -12.002625 -1.739107 255.92
3.4659386 -13.818894 -1.6660656 255.92
4.6904364 -18.701036 -1.7987595 255.92
6.8305793 -27.233908 -1.9633657 255.92
7.7851434 -31.039808 -1.4923466 255.92
11.900796 -47.44915 -1.1357507 255.92
1.3175235 -5.2530408 -2.1147785 255.92
1.4146082 -5.6401234 -2.1164207 255.92
1.5266649 -6.0868993 -2.120455 255.92
1.6516404 -6.5851841 -2.1184852 255.92
1.8044046 -7.1942635 -2.1268179 255.92
1.9444267 -7.7525392 -2.0923634 255.92
2.0443325 -8.1508703 -1.9911097 255.92
2.0826283 -8.3035574 -1.8196431 255.92
2.2329154 -8.9027605 -1.7293205 255.92
2.1846533 -8.827774 -1.4941027 256.10001
4.5364652 -18.331005 -1.7617885 256.10001
6.7373195 -27.224245 -1.9611335 256.10001
7.6333585 -30.844969 -1.4818188 256.10001
11.792019 -47.649338 -1.13965 256.10001
1.3010141 -5.257154 -2.1147785 256.10001
1.3977853 -5.6481881 -2.1177888 256.10001
1.5093554 -6.0990224 -2.1230159 256.10001
1.6309444 -6.5903401 -2.1184852 256.10001
1.7804087 -7.1942978 -2.125164 256.10001
1.9372591 -7.8281007 -2.111104 256.10001
2.0201185 -8.16292 -1.9924932 256.10001
2.0555918 -8.3062611 -1.8188114 256.10001
2.2634821 -9.146306 -1.7752383 256.10001
2.4750991 -10.13021 -1.7132896 256.26999
4.44519 -18.193497 -1.7472973 256.26999
6.6721406 -27.308073 -1.9657375 256.26999
7.2767401 -29.782608 -1.4297385 256.26999
12.026445 -49.222439 -1.1764159 256.26999
1.2862945 -5.2646108 -2.1162336 256.26999
1.3801285 -5.6486592 -2.1164207 256.26999
1.4912527 -6.1034737 -2.1230159 256.26999
1.6118364 -6.5970049 -2.119081 256.26999
1.7581425 -7.1958137 -2.1240613 256.26999
1.9167795 -7.8450913 -2.1141431 256.26999
1.9958897 -8.1688776 -1.9924932 256.26999
2.1915925 -8.9698601 -1.9626864 256.26999
2.2209404 -9.0899763 -1.7630183 256.26999
2.4094014 -9.9897823 -1.688323 256.44
4.2891202 -17.783411 -2.1392636 256.44
4.5125833 -18.709925 -1.7956011 256.44
6.6093302 -27.403389 -1.9711784 256.44
7.2276888 -29.967207 -1.4375645 256.44
11.469677 -47.555202 -1.1357507 256.44
1.2697948 -5.264782 -2.1147785 256.44
1.3642439 -5.6563835 -2.1177888 256.44
1.4731368 -6.1078715 -2.1230159 256.44
1.5927032 -6.6036143 -2.1196766 256.44
1.7372351 -7.2028675 -2.1246128 256.44
1.8907723 -7.8394589 -2.111104 256.44
1.9734685 -8.1823311 -1.9943376 256.44
2.1805639 -9.0409832 -1.9768244 256.44
2.2690737 -9.4079599 -1.8233778 256.44
2.6962528 -11.335235 -1.6375107 256.62
4.2396665 -17.823854 -2.1425159 256.62
4.3565497 -18.315239 -1.7564007 256.62
6.5190525 -27.406549 -1.9699228 256.62
7.6281848 -32.06942 -1.5372531 256.62
1.2528176 -5.2669325 -2.1140511 256.62
1.3447275 -5.6533279 -2.1150525 256.62
1.4535027 -6.1106262 -2.1223757 256.62
1.5715078 -6.6067281 -2.119081 256.62
1.7177123 -7.2213821 -2.1284716 256.62
1.8804621 -7.9055934 -2.1273122 256.62
1.9572105 -8.2282495 -2.0040212 256.62
2.1729743 -9.1353359 -1.9959522 256.62
2.199028 -9.2448673 -1.7904208 256.62
2.2250602 -9.4717197 -1.5985082 256.78
2.6664 -11.350431 -1.6386241 256.78
4.2053223 -17.901373 -2.150414 256.78
4.3081198 -18.338964 -1.7575154 256.78
6.3028755 -26.830317 -1.9272319 256.78
7.5152993 -31.991407 -1.5325016 256.78
11.549427 -49.164032 -1.1725165 256.78
1.2389568 -5.2740378 -2.1155062 256.78
1.3297948 -5.6607203 -2.1164207 256.78
1.4377328 -6.1201949 -2.1242964 256.78
1.5539254 -6.6148081 -2.1202724 256.78
1.6992984 -7.2336369 -2.1306767 256.78
1.861033 -7.9221148 -2.1303513 256.78
1.9529178 -8.3132534 -2.0233881 256.78
2.1684825 -9.2308769 -2.015496 256.78
2.231185 -9.4977922 -1.83819 256.78
2.5199046 -10.880245 -1.5695943 256.95999
4.1656466 -17.986101 -2.1590092 256.95999
6.2194552 -26.853872 -1.9275109 256.95999
7.4251261 -32.059624 -1.5346444 256.95999
11.403488 -49.237083 -1.1733985 256.95999
1.2236429 -5.283349 -2.1176884 256.95999
1.3115805 -5.6630392 -2.1157367 256.95999
1.4172161 -6.119144 -2.1223757 256.95999
1.5314137 -6.6122174 -2.1178894 256.95999
1.6730946 -7.2239561 -2.1262665 256.95999
1.8361357 -7.9279222 -2.1303513 256.95999
1.9500639 -8.4198322 -2.0478272 256.95999
2.1390307 -9.2357388 -2.0150802 256.95999
2.1995621 -9.4970961 -1.8367088 256.95999
2.3117898 -10.11002 -1.7038866 257.12
2.4903944 -10.891101 -1.570151 257.12
4.1286879 -18.055758 -2.1659782 257.12
4.1912289 -18.329264 -1.7541713 257.12
6.1399937 -26.851686 -1.9261158 257.12
7.0438747 -30.804581 -1.4736202 257.12
11.273525 -49.301872 -1.1741877 257.12
1.2076385 -5.2812972 -2.1155062 257.12
1.2961801 -5.6685119 -2.1164207 257.12
1.4001226 -6.1230774 -2.1223757 257.12
1.5142196 -6.6220512 -2.1196766 257.12
1.656772 -7.2454672 -2.131228 257.12
1.8148522 -7.9367909 -2.1313641 257.12
1.9469328 -8.514411 -2.0695 257.12
2.1014574 -9.1901846 -2.0038528 257.12
2.1576986 -9.436142 -1.8237481 257.12
2.2869589 -10.148037 -1.7090745 257.29999
4.0719438 -18.06864 -2.1659782 257.29999
4.1647081 -18.480268 -1.767362 257.29999
6.0499043 -26.845541 -1.9243021 257.29999
6.7476611 -29.941734 -1.4313223 257.29999
11.190674 -49.656937 -1.1818008 257.29999
1.1898121 -5.2796125 -2.1133237 257.29999
1.2775393 -5.668889 -2.1150525 257.29999
1.3812962 -6.1292944 -2.1230159 257.29999
1.4921492 -6.6211882 -2.1178894 257.29999
1.6335789 -7.2487612 -2.1306767 257.29999
1.7890584 -7.9386787 -2.1303513 257.29999
1.9398553 -8.6078167 -2.0907114 257.29999
2.0583823 -9.1337633 -1.9901307 257.29999
2.1116242 -9.3700151 -1.8096765 257.29999
2.2722528 -10.224133 -1.7207471 257.47
2.4745204 -11.134248 -1.6029958 257.47
4.0282273 -18.125242 -2.1713212 257.47
5.9840765 -26.925697 -1.9287665 257.47
6.7164392 -30.221006 -1.4437135 257.47
10.992103 -49.459602 -1.1763231 257.47
1.1745461 -5.2849383 -2.1140511 257.47
1.260306 -5.6708198 -2.1143684 257.47
1.3622819 -6.1296663 -2.1217353 257.47
1.474154 -6.6330414 -2.1202724 257.47
1.6099787 -7.2441926 -2.1279204 257.47
1.7663356 -7.9477291 -2.1313641 257.47
1.9354175 -8.7085228 -2.1137674 257.47
2.0308485 -9.1379204 -1.9897149 257.47
2.1213367 -9.5450773 -1.8422633 257.47
2.6750648 -12.207522 -1.7563646 257.64001
3.9795334 -18.160398 -2.1741087 257.64001
4.7608509 -21.725903 -2.0750201 257.64001
5.899035 -26.919947 -1.9270923 257.64001
6.5446348 -29.866108 -1.4258255 257.64001
11.188982 -51.060352 -1.2135996 257.64001
1.1588603 -5.2884002 -2.1140511 257.64001
1.2446817 -5.6800418 -2.1164207 257.64001
1.3457112 -6.1410847 -2.1242964 257.64001
1.4540583 -6.6355209 -2.1196766 257.64001
1.5880662 -7.2470593 -2.1273692 257.64001
1.7419182 -7.9491553 -2.1303513 257.64001
1.9278995 -8.7978716 -2.1340566 257.64001
2.0066581 -9.1572828 -1.9926256 257.64001
2.0972135 -9.570528 -1.8459663 257.64001
3.9270716 -18.19417 -2.1766641 257.82001
5.7887573 -26.819384 -1.9185821 257.82001
6.9772406 -32.325642 -1.5421909 257.82001
10.9838 -50.888081 -1.208679 257.82001
1.1426337 -5.2938356 -2.1147785 257.82001
1.2264347 -5.6820869 -2.1157367 257.82001
1.326012 -6.1434302 -2.123656 257.82001
1.4344134 -6.6456552 -2.121464 257.82001
1.5677248 -7.263288 -2.1306767 257.82001
1.7181612 -7.9602623 -2.1318707 257.82001
1.903946 -8.8210058 -2.1382065 257.82001
1.9787053 -9.167366 -1.9934573 257.82001
2.1521442 -9.970911 -1.9218787 257.82001
3.8763781 -18.221287 -2.1785226 257.98999
3.8602281 -18.145372 -1.7307625 257.98999
5.0332913 -23.65947 -1.691455 257.98999
6.8584337 -32.238724 -1.5370667 257.98999
11.909092 -55.979832 -1.3287716 257.98999
1.1269215 -5.2972026 -2.1147785 257.98999
1.2103524 -5.6893773 -2.1171048 257.98999
1.307384 -6.145484 -2.1230159 257.98999
1.4146892 -6.6498818 -2.121464 257.98999
1.5461674 -7.2679076 -2.1306767 257.98999
1.6969508 -7.9766798 -2.1349096 257.98999
1.8765504 -8.8209057 -2.1368232 257.98999
1.9576026 -9.2018986 -1.9996946 257.98999
2.0100839 -9.4485922 -1.8200451 257.98999
2.0303888 -9.6767292 -1.6244476 258.14999
2.3531864 -11.215166 -1.6105112 258.14999
3.8271112 -18.239817 -2.1794517 258.14999
3.3666763 -16.045408 -1.5295587 258.14999
6.1262431 -29.197363 -2.0861371 258.14999
8.6042681 -41.007504 -1.9539884 258.14999
11.775714 -56.122452 -1.3313712 258.14999
1.1121246 -5.3003287 -2.1147785 258.14999
1.1948459 -5.6945744 -2.1177888 258.14999
1.2902175 -6.1491108 -2.1230159 258.14999
1.3953296 -6.6500697 -2.1202724 258.14999
1.5258656 -7.2721972 -2.1306767 258.14999
1.6734772 -7.9757066 -2.1333902 258.14999
1.8535091 -8.8337297 -2.1386678 258.14999
1.9491726 -9.2896576 -2.017575 258.14999
2.1221254 -10.113941 -1.9470594 258.14999
2.3215864 -11.250063 -1.614408 258.34
2.4839036 -12.036628 -1.4372487 258.34
3.3669765 -16.315868 -1.5542679 258.34
5.2543941 -25.462013 -1.8179932 258.34
8.108881 -39.294437 -1.8710699 258.34
1.0941654 -5.3021631 -2.1140511 258.34
1.1751957 -5.6948242 -2.1164207 258.34
1.2690533 -6.1496444 -2.1217353 258.34
1.3732694 -6.6546602 -2.1202724 258.34
1.500576 -7.2715688 -2.1290228 258.34
1.6446733 -7.9698429 -2.1303513 258.34
1.8238119 -8.8379221 -2.1382065 258.34
1.9385204 -9.3937817 -2.0387821 258.34
2.0977106 -10.165195 -1.9555764 258.34
2.1435754 -10.53601 -1.7664652 258.5
2.2850282 -11.231273 -1.6107894 258.5
2.4435487 -12.010426 -1.4332997 258.5
4.502511 -22.130548 -2.1069748 258.5
5.9533424 -29.261612 -2.0880902 258.5
8.0046959 -39.344334 -1.8723743 258.5
1.0797261 -5.3070235 -2.1147785 258.5
1.1581641 -5.6925588 -2.1143684 258.5
1.2499866 -6.1438808 -2.1185343 258.5
1.355442 -6.6622109 -2.121464 258.5
1.4806474 -7.2776146 -2.1295743 258.5
1.6251111 -7.9876766 -2.1338968 258.5
1.8006766 -8.8506088 -2.1400511 258.5
1.9391921 -9.5314331 -2.0674739 258.5
2.1116347 -10.379017 -1.9955692 258.5
2.1658609 -10.819418 -1.8128316 258.67999
2.1991947 -10.985934 -1.5746045 258.67999
2.4061947 -12.019991 -1.4335319 258.67999
3.2216284 -16.093437 -1.5312307 258.67999
4.887033 -24.412859 -1.7409821 258.67999
7.9030128 -39.478989 -1.8775916 258.67999
9.2010927 -45.963463 -1.0883077 258.67999
1.0626826 -5.3085628 -2.1140511 258.67999
1.1413815 -5.7016978 -2.1164207 258.67999
1.2332823 -6.1607828 -2.1230159 258.67999
1.3345054 -6.6664362 -2.121464 258.67999
1.4589089 -7.2878857 -2.131228 258.67999
1.5992496 -7.9889483 -2.1328838 258.67999
1.7720988 -8.8524055 -2.1391289 258.67999
1.9334306 -9.6583271 -2.0936708 258.67999
2.0801752 -10.391381 -1.9966801 258.67999
2.1020734 -10.665085 -1.7859195 258.85001
2.210633 -11.215874 -1.6066142 258.85001
2.4000988 -12.177148 -1.4514191 258.85001
3.1834912 -16.151768 -1.5358752 258.85001
4.8041601 -24.374399 -1.7372153 258.85001
7.7352314 -39.245491 -1.8653867 258.85001
9.0016518 -45.670803 -1.080741 258.85001
1.0472875 -5.31352 -2.1147785 258.85001
1.1248226 -5.706903 -2.1171048 258.85001
1.215364 -6.1662736 -2.123656 258.85001
1.3139815 -6.6666198 -2.1202724 258.85001
1.437279 -7.292182 -2.131228 258.85001
1.5751647 -7.9917598 -2.1323771 258.85001
1.7462018 -8.8595333 -2.13959 258.85001
1.9289768 -9.7868614 -2.1202834 258.85001
2.0455334 -10.378223 -1.9929771 258.85001
2.0523775 -10.578279 -1.7703561 259.01999
2.3840108 -12.28757 -1.4637311 259.01999
4.0727687 -20.991697 -1.9949472 259.01999
4.7504392 -24.484518 -1.7440513 259.01999
6.8166194 -35.133942 -1.668991 259.01999
10.604593 -54.657757 -1.2926556 259.01999
1.0318722 -5.3184328 -2.1155062 259.01999
1.107885 -5.7102151 -2.1171048 259.01999
1.196702 -6.1679926 -2.1230159 259.01999
1.2941955 -6.6704893 -2.1202724 259.01999
1.4160025 -7.2983017 -2.1317792 259.01999
1.5529199 -8.0039959 -2.1344032 259.01999
1.720278 -8.8665857 -2.1400511 259.01999
1.9066371 -9.8271103 -2.1277683 259.01999
2.0162292 -10.391965 -1.9944583 259.01999
2.0808921 -10.908419 -1.8245043 259.20001
2.1253784 -11.141623 -1.5940887 259.20001
2.3569355 -12.355489 -1.4709325 259.20001
3.1157377 -16.333269 -1.5512953 259.20001
4.6716261 -24.489523 -1.7433538 259.20001
6.6324615 -34.768581 -1.6506371 259.20001
1.0148096 -5.3198185 -2.1147785 259.20001
1.0899404 -5.7136674 -2.1171048 259.20001
1.1780289 -6.1754441 -2.1242964 259.20001
1.2743064 -6.6801481 -2.1220596 259.20001
1.392707 -7.3008261 -2.131228 259.20001
1.5284921 -8.0126362 -2.1354163 259.20001
1.6964257 -8.8929749 -2.1451235 259.20001
1.8786875 -9.8484249 -2.1310949 259.20001
1.9861499 -10.411762 -1.9970505 259.20001
1.9691539 -10.491695 -1.7538197 259.37
2.1200771 -11.295817 -1.615243 259.37
2.3558099 -12.551808 -1.4934657 259.37
3.0584462 -16.295469 -1.5468365 259.37
4.610353 -24.564062 -1.7476786 259.37
6.5469613 -34.882359 -1.6551092 259.37
0.93413526 -4.9770937 -2.1152012 259.37
0.99867731 -5.3209748 -2.1140511 259.37
1.0722895 -5.713182 -2.1157367 259.37
1.1572542 -6.1658764 -2.1198146 259.37
1.2534239 -6.6782703 -2.1202724 259.37
1.3706843 -7.3030362 -2.1306767 259.37
1.5050683 -8.0190372 -2.1359227 259.37
1.6689553 -8.892231 -2.1437399 259.37
1.8541497 -9.8789511 -2.1365006 259.37
1.9566991 -10.425336 -1.9985317 259.37
1.956647 -10.598411 -1.7706803 259.54001
2.0322583 -11.007967 -1.5732127 259.54001
2.5886774 -14.021878 -1.6674594 259.54001
2.9746532 -16.112562 -1.5286297 259.54001
4.4947085 -24.346121 -1.7312162 259.54001
7.2421088 -39.227741 -1.8602625 259.54001
0.91835868 -4.9743986 -2.1128886 259.54001
0.98356175 -5.327579 -2.1155062 259.54001
1.0556747 -5.7181869 -2.1164207 259.54001
1.1406746 -6.1785994 -2.1230159 259.54001
1.2339503 -6.6838374 -2.1208682 259.54001
1.3493588 -7.3089619 -2.131228 259.54001
1.4812688 -8.023468 -2.1359227 259.54001
1.6418576 -8.8933163 -2.1428177 259.54001
1.8266059 -9.8940277 -2.1385796 259.54001
1.9371761 -10.492945 -2.0103815 259.54001
2.0230129 -11.154052 -1.8624405 259.72
1.9715108 -10.87009 -1.5526152 259.72
2.9751935 -16.40398 -1.5553826 259.72
4.4830017 -24.717405 -1.7566075 259.72
6.5505266 -36.116879 -1.7117546 259.72
0.90239733 -4.9754434 -2.1121178 259.72
10.83952 -59.764603 -1.410195 259.72
0.96582246 -5.3251433 -2.1133237 259.72
1.0373698 -5.7196259 -2.1157367 259.72
1.120244 -6.1765594 -2.1210952 259.72
1.2119241 -6.6820455 -2.119081 259.72
1.3270766 -7.3169479 -2.1323307 259.72
1.456055 -8.0280819 -2.1359227 259.72
1.6142577 -8.9003448 -2.1432788 259.72
1.795514 -9.8997173 -2.1385796 259.72
1.9298066 -10.640151 -2.0374136 259.72
1.9401882 -10.870175 -1.8141285 259.88
2.0646884 -11.567705 -1.651428 259.88
2.3036785 -12.90668 -1.5331892 259.88
2.9209757 -16.365175 -1.5509237 259.88
4.7091355 -26.383591 -1.8740774 259.88
6.9582996 -38.984848 -1.8467534 259.88
0.88785124 -4.9743104 -2.1105762 259.88
0.95127541 -5.3296537 -2.1140511 259.88
1.0207331 -5.7188001 -2.1143684 259.88
1.1039902 -6.1852593 -2.1230159 259.88
1.1939305 -6.6891627 -2.1202724 259.88
1.305963 -7.3168402 -2.131228 259.88
1.4322709 -8.024498 -2.1338968 259.88
1.589397 -8.9048185 -2.1432788 259.88
1.7685493 -9.9085445 -2.1394112 259.88
1.9266777 -10.794481 -2.065927 259.88
1.907051 -10.882049 -1.8151013 260.06
2.0327816 -11.599495 -1.6550465 260.06
2.2528777 -12.855411 -1.2176275 260.06
0.87444955 -4.9897995 -2.115972 260.06
0.93517035 -5.3362856 -2.1155062 260.06
2.2668037 -12.934876 0 260.06
1.0047085 -5.7330856 -2.1184728 260.06
2.2641222 -12.919575 0.30452561 260.06
1.0845532 -6.1886973 -2.1230159 260.06
2.2626185 -12.910995 0.61126775 260.06
1.1735692 -6.6966419 -2.121464 260.06
2.2609375 -12.901402 0.9159025 260.06
1.2839657 -7.3265882 -2.1328819 260.06
2.2642212 -12.920139 1.2237583 260.06
1.4073881 -8.0308638 -2.1344032 260.06
2.2620909 -12.907984 1.5324923 260.06
1.5620856 -8.9136009 -2.144201 260.06
1.7387627 -9.9217596 -2.1410747 260.06
1.9185405 -10.94761 -2.0940702 260.06
1.8870475 -10.947622 -1.8251528 260.22
2.1820512 -12.659073 -1.8053535 260.22
2.2206373 -12.882929 -1.5287755 260.22
2.2214651 -12.887732 -0.6098702 260.22
0.8601985 -4.9904037 -2.1152012 260.22
2.2222612 -12.89235 -0.30373645 260.22
0.91994852 -5.3370404 -2.1147785 260.22
2.2198026 -12.878086 0 260.22
0.98677933 -5.7247562 -2.1143684 260.22
1.0675888 -6.1935687 -2.123656 260.22
1.1551884 -6.7017741 -2.1220596 260.22
1.2631744 -7.3282504 -2.1323307 260.22
1.3869282 -8.0462027 -2.1374424 260.22
1.5368576 -8.9160109 -2.1437399 260.22
1.7123785 -9.934288 -2.1427379 260.22
1.9170071 -11.121431 -2.1262867 260.22
1.846788 -10.930469 -1.8212619 260.41
1.9899327 -11.777689 -1.6787059 260.41
2.1590405 -12.778576 -1.5155343 260.41
2.1802783 -12.904277 -1.2209716 260.41
2.1817532 -12.913006 -0.91576296 260.41
2.1797142 -12.900937 -0.61014974 260.41
0.84333754 -4.9914088 -2.1144302 260.41
2.1794965 -12.899649 -0.30373645 260.41
0.90255558 -5.3418989 -2.1155062 260.41
0.9687292 -5.7335567 -2.1164207 260.41
2.1774979 -12.887819 0.30345792 260.41
1.0470443 -6.1970749 -2.123656 260.41
2.1783829 -12.893057 0.60977703 260.41
1.1326401 -6.7036858 -2.121464 260.41
1.2382256 -7.3286076 -2.131228 260.41
2.1826007 -12.918021 1.222272 260.41
1.3599161 -8.0488491 -2.1369357 260.41
2.1805513 -12.905891 1.5306339 260.41
1.5066341 -8.9172201 -2.1428177 260.41
2.1793244 -12.89863 1.8384767 260.41
1.6839886 -9.966917 -2.1485593 260.41
2.1808341 -12.907565 2.1506908 260.41
1.8932139 -11.205246 -2.1410987 260.41
2.1790624 -12.897079 2.4643743 260.41
1.9271663 -11.60336 -1.9324765 260.57001
1.990134 -11.982485 -1.7070973 260.57001
2.5477567 -15.339899 -1.8184553 260.57001
2.1455395 -12.918173 -1.2217147 260.57001
2.1482999 -12.934793 -0.91687912 260.57001
2.1492441 -12.940477 -0.61173356 260.57001
0.8287909 -4.9901032 -2.1128886 260.57001
2.147069 -12.927382 -0.30424708 260.57001
0.88763469 -5.3443985 -2.1155062 260.57001
2.1489584 -12.938757 0 260.57001
0.95209849 -5.7325315 -2.1150525 260.57001
2.1467414 -12.925409 0.30420068 260.57001
1.0297347 -6.1999745 -2.123656 260.57001
2.1459708 -12.920769 0.61080188 260.57001
1.1136026 -6.7049389 -2.1208682 260.57001
2.1473193 -12.928888 0.91646057 260.57001
1.2180704 -7.3339334 -2.1317792 260.57001
2.1481497 -12.933887 1.223201 260.57001
1.3364831 -8.0468893 -2.1354163 260.57001
2.1445029 -12.911931 1.5306339 260.57001
1.4823644 -8.9252329 -2.1437399 260.57001
2.1445942 -12.91248 1.8395901 260.57001
1.6519823 -9.9464922 -2.1431537 260.57001
2.1444576 -12.911658 2.1503665 260.57001
1.8641697 -11.224061 -2.1436911 260.57001
2.1436825 -12.906992 2.4651151 260.57001
1.9178183 -11.762905 -1.9580916 260.73999
3.8271856 -23.473976 -1.6631339 260.73999
0.81516922 -4.999826 -2.115972 260.73999
0.87177366 -5.3470087 -2.1155062 260.73999
0.9356904 -5.7390409 -2.1164207 260.73999
1.0116395 -6.2048726 -2.1242964 260.73999
1.0930895 -6.7044449 -2.1196766 260.73999
2.1118386 -12.952925 0.91771615 260.73999
1.1963048 -7.3375149 -2.1317792 260.73999
2.1145711 -12.969686 1.2259878 260.73999
1.3122903 -8.0489101 -2.1349096 260.73999
2.1157725 -12.977054 1.5376029 260.73999
1.4561894 -8.9315128 -2.144201 260.73999
2.1120093 -12.953972 1.8446003 260.73999
1.6240373 -9.9610043 -2.1452329 260.73999
2.1118548 -12.953025 2.1562028 260.73999
1.8321242 -11.237302 -2.1451721 260.73999
2.1088562 -12.934633 2.4691885 260.73999
1.8711996 -11.708459 -1.9480401 260.92001
2.176878 -13.621147 -1.6131009 260.92001
6.4087806 -40.100983 -1.8938026 260.92001
0.79887533 -4.9987178 -2.1144302 260.92001
0.85467726 -5.3478813 -2.1147785 260.92001
0.91765612 -5.7419524 -2.1164207 260.92001
0.99154323 -6.2042785 -2.1230159 260.92001
1.072624 -6.7116165 -2.1208682 260.92001
1.1729441 -7.3393388 -2.131228 260.92001
1.2876081 -8.0568142 -2.1359227 260.92001
1.4281231 -8.9360428 -2.144201 260.92001
1.5930445 -9.967989 -2.1456487 260.92001
1.7971224 -11.244943 -2.1455424 260.92001
1.8461463 -11.762381 -1.9561461 261.07999
2.1226234 -13.523903 -1.923929 261.07999
2.5942824 -16.52899 -1.5609561 261.07999
3.697721 -23.559347 -1.6675982 261.07999
0.78548545 -5.0045753 -2.115972 261.07999
0.8400287 -5.3520875 -2.1155062 261.07999
0.9013266 -5.7426357 -2.1157367 261.07999
0.97274482 -6.1976638 -2.1198146 261.07999
1.0535815 -6.7126994 -2.1202724 261.07999
1.1518481 -7.3387871 -2.1301255 261.07999
1.2648044 -8.0584669 -2.1354163 261.07999
1.4034652 -8.9419193 -2.1446621 261.07999
1.5642926 -9.9666004 -2.1444011 261.07999
1.7666278 -11.255743 -2.1466534 261.07999
1.8511633 -12.055187 -2.0038095 261.26999
2.1006107 -13.679644 -1.9450833 261.26999
2.1482029 -13.989575 -1.6551474 261.26999
2.5370381 -16.521757 -1.5594698 261.26999
4.7097173 -30.670729 -2.1698449 261.26999
6.9387484 -45.186672 -2.131937 261.26999
0.76692462 -4.9943838 -2.1105762 261.26999
0.82284147 -5.3585267 -2.116961 261.26999
0.88227838 -5.7455931 -2.1157367 261.26999
0.95391279 -6.2120924 -2.123656 261.26999
1.0310258 -6.7142692 -2.1196766 261.26999
1.1289644 -7.3520675 -2.1328819 261.26999
1.2380745 -8.0626173 -2.1354163 261.26999
1.3743957 -8.9503708 -2.1455846 261.26999
1.5312334 -9.9717331 -2.1444011 261.26999
1.7307843 -11.271253 -2.148505 261.26999
1.7557323 -11.650494 -1.9357189 261.42999
2.0783391 -13.791211 -1.960114 261.42999
1.9957534 -13.243199 -1.5661761 261.42999
2.5279841 -16.774916 -1.5826927 261.42999
3.7912872 -25.157803 -1.7790691 261.42999
6.8312922 -45.33033 -2.1378067 261.42999
0.7532497 -4.9983311 -2.111347 261.42999
0.80704159 -5.3552771 -2.1147785 261.42999
0.86679035 -5.7517514 -2.1171048 261.42999
0.93684399 -6.2166057 -2.1242964 261.42999
1.012272 -6.7171221 -2.1196766 261.42999
1.1078563 -7.3513894 -2.1317792 261.42999
1.2167079 -8.0736961 -2.1374424 261.42999
1.3488163 -8.950325 -2.1446621 261.42999
1.5042558 -9.9817734 -2.1456487 261.42999
1.7004738 -11.283815 -2.149986 261.42999
1.8734692 -12.702449 -2.1095121 261.60999
2.040493 -13.8349 -1.9654025 261.60999
2.4706228 -16.751255 -1.5797203 261.60999
3.7553174 -25.461708 -1.7997171 261.60999
6.7008009 -45.432602 -2.1416264 261.60999
0.73754334 -5.0006728 -2.111347 261.60999
0.79021353 -5.3577857 -2.1147785 261.60999
0.84816802 -5.7507272 -2.1157367 261.60999
0.91730934 -6.2195182 -2.1242964 261.60999
0.99200028 -6.7259355 -2.121464 261.60999
1.0844752 -7.3529315 -2.131228 261.60999
1.1910554 -8.0755644 -2.1369357 261.60999
1.3212593 -8.9583693 -2.1455846 261.60999
1.4731752 -9.9883852 -2.1460645 261.60999
1.6670238 -11.302712 -2.1525784 261.60999
1.8662407 -12.902953 -2.1419363 261.76999
2.0154593 -13.934631 -1.9787631 261.76999
2.1554227 -14.902321 -1.7608446 261.76999
2.4033108 -16.616188 -1.5663438 261.76999
3.7121887 -25.665606 -1.8133893 261.76999
6.5996418 -45.629089 -2.1500115 261.76999
0.72278345 -4.9972334 -2.1090343 261.76999
0.77578205 -5.3636594 -2.1162336 261.76999
0.83291274 -5.7586536 -2.1177888 261.76999
0.89885271 -6.2145543 -2.1217353 261.76999
0.97266752 -6.7249007 -2.1202724 261.76999
1.0642129 -7.3578343 -2.1317792 261.76999
1.1682227 -8.0769434 -2.1364293 261.76999
1.2956805 -8.9581718 -2.1446621 261.76999
1.4458367 -9.9963331 -2.1468961 261.76999
1.6346102 -11.301488 -2.1514673 261.76999
1.8453815 -13.031539 -2.1623635 261.94
1.9743832 -13.942511 -1.9790415 261.94
2.1109188 -14.906684 -1.7606122 261.94
2.3710308 -16.743519 -1.5776767 261.94
3.8156123 -26.944727 -1.9029566 261.94
0.70950568 -5.0103197 -2.1136594 261.94
0.75881952 -5.3585591 -2.1133237 261.94
0.81529582 -5.7573781 -2.1164207 261.94
0.88120681 -6.2228222 -2.123656 261.94
0.95271009 -6.727757 -2.1202724 261.94
1.0421076 -7.359056 -2.131228 261.94
1.1431676 -8.0727119 -2.1344032 261.94
1.2688226 -8.9600496 -2.144201 261.94
1.4156221 -9.9967051 -2.1460645 261.94
1.6007953 -11.304342 -2.1510971 261.94
1.8116959 -13.05619 -2.1656058 262.10001
1.9509569 -14.059789 -1.9949073 262.10001
2.0507174 -14.778723 -1.7448158 262.10001
2.33056 -16.795441 -1.5819497 262.10001
3.8486702 -27.735872 -1.9580642 262.10001
0.69449687 -5.0049696 -2.1105762 262.10001
0.7443648 -5.3643479 -2.1147785 262.10001
0.79895669 -5.7577705 -2.1157367 262.10001
0.86252391 -6.2158747 -2.120455 262.10001
0.93391895 -6.730391 -2.1202724 262.10001
1.0220817 -7.365746 -2.1323307 262.10001
1.1216836 -8.0835381 -2.1364293 262.10001
1.2437965 -8.9635582 -2.144201 262.10001
1.3879694 -10.002557 -2.1464803 262.10001
1.5697616 -11.312662 -2.1518376 262.10001
1.7641538 -13.030834 -2.160418 262.29001
1.9383328 -14.317398 -2.0305355 262.29001
2.0632601 -15.240167 -1.7984774 262.29001
2.2441282 -16.576141 -1.5605845 262.29001
3.634351 -26.844952 -1.8943068 262.29001
0.67888635 -5.0145602 -2.1136594 262.29001
0.72532219 -5.3575559 -2.1111412 262.29001
0.77985883 -5.7603884 -2.1157367 262.29001
0.84216076 -6.2205787 -2.1210952 262.29001
0.91338801 -6.7466946 -2.1244426 262.29001
0.9968766 -7.363379 -2.1306767 262.29001
1.0935737 -8.0776272 -2.1338968 262.29001
1.2143265 -8.9695616 -2.1446621 262.29001
1.355317 -10.010982 -2.1473119 262.29001
1.5317115 -11.31391 -2.1510971 262.29001
1.7260524 -13.057834 -2.1639845 262.47
1.8987942 -14.36465 -2.0363808 262.47
1.9560193 -14.797566 -1.7455127 262.47
2.203263 -16.667999 -1.5685732 262.47
3.7026854 -28.011343 -1.9757824 262.47
0.66240382 -5.0111794 -2.111347 262.47
0.71044046 -5.3745837 -2.116961 262.47
0.76225078 -5.7665362 -2.1171048 262.47
0.8243522 -6.2363424 -2.1255767 262.47
0.89143759 -6.7438526 -2.1226554 262.47
0.97449481 -7.3721924 -2.1323307 262.47
1.0699664 -8.094449 -2.1374424 262.47
1.1869069 -8.9791203 -2.1460457 262.47
1.3233472 -10.011312 -2.1464803 262.47
1.4966754 -11.322563 -2.1518376 262.47
1.6890713 -13.076598 -2.1662543 262.64001
1.8708805 -14.484145 -2.0525248 262.64001
2.1798184 -16.875908 -1.5875232 262.64001
3.4966226 -27.070457 -1.9086766 262.64001
6.0670376 -46.970318 -2.2086134 262.64001
0.64729601 -5.0112925 -2.1105762 262.64001
0.69353604 -5.3692775 -2.1140511 262.64001
0.74537855 -5.7706366 -2.1177888 262.64001
0.80535954 -6.2350025 -2.1242964 262.64001
0.87093508 -6.742681 -2.121464 262.64001
0.95237052 -7.3731446 -2.1317792 262.64001
1.045945 -8.0975885 -2.1374424 262.64001
1.1607587 -8.9864626 -2.1469679 262.64001
1.2931361 -10.011313 -2.1456487 262.64001
1.4635777 -11.330853 -2.1525784 262.64001
1.6514999 -13.091343 -2.1678755 262.81
1.8626008 -14.764727 -2.0914934 262.81
1.8922915 -15.000084 -1.7680459 262.81
2.1115427 -16.738075 -1.5739609 262.81
3.6327868 -28.796886 -2.0296345 262.81
0.63334829 -5.020515 -2.1136594 262.81
0.6780684 -5.3750081 -2.1155062 262.81
0.72895914 -5.7784166 -2.1198409 262.81
0.78543353 -6.2260857 -2.120455 262.81
0.85068643 -6.7433414 -2.1208682 262.81
0.9307304 -7.3778453 -2.1323307 262.81
1.0214301 -8.096817 -2.1364293 262.81
1.133116 -8.9821444 -2.1451235 262.81
1.263916 -10.018988 -2.1464803 262.81
1.42946 -11.331245 -2.1518376 262.81
1.6150619 -13.115772 -2.171118 262.98001
1.8512199 -15.03359 -2.1287918 262.98001
1.8378233 -14.924798 -1.7585216 262.98001
2.0686851 -16.799606 -1.5791628 262.98001
2.8331325 -23.007616 -1.6210009 262.98001
5.8040757 -47.13438 -2.2146692 262.98001
0.61844939 -5.0223718 -2.1136594 262.98001
0.66211742 -5.3769965 -2.1155062 262.98001
0.71112204 -5.7749581 -2.1177888 262.98001
0.76718849 -6.230269 -2.1210952 262.98001
0.83044147 -6.7439408 -2.1202724 262.98001
0.90883583 -7.3805747 -2.1323307 262.98001
0.99740201 -8.0998125 -2.1364293 262.98001
1.1059848 -8.9816036 -2.144201 262.98001
1.2337054 -10.01881 -2.1456487 262.98001
1.3970343 -11.34519 -2.1536891 262.98001
1.5754334 -13.114628 -2.1701453 263.14999
1.8413305 -15.328077 -2.1697087 263.14999
1.8707706 -15.57315 -1.8342519 263.14999
2.1314101 -17.742834 -1.6672244 263.14999
2.736062 -22.776234 -1.6041199 263.14999
5.690649 -47.371571 -2.2250109 263.14999
0.60266453 -5.0168557 -2.1105762 263.14999
0.64638287 -5.3807869 -2.1162336 263.14999
0.69420838 -5.7789087 -2.1184728 263.14999
0.75005549 -6.2438054 -2.1249366 263.14999
0.81111133 -6.7520618 -2.1220596 263.14999
0.88762116 -7.3889651 -2.1339843 263.14999
0.97336501 -8.1027355 -2.1364293 263.14999
1.0800273 -8.9906416 -2.1455846 263.14999
1.2042068 -10.024369 -2.1460645 263.14999
1.3628975 -11.345383 -2.1529486 263.14999
1.5381145 -13.113096 -2.1691725 263.31
1.8105171 -15.435447 -2.1841826 263.31
1.8261178 -15.568449 -1.8330903 263.31
2.147043 -18.304476 -1.7194297 263.31
2.5309 -21.577024 -1.5191565 263.31
5.5769601 -47.546013 -2.2324641 263.31
0.58929753 -5.0240178 -2.1128886 263.31
0.63157141 -5.3844213 -2.116961 263.31
0.67850584 -5.7845578 -2.1198409 263.31
0.7326166 -6.2458754 -2.1249366 263.31
0.79203045 -6.7524042 -2.121464 263.31
0.86631197 -7.3856864 -2.1323307 263.31
0.95028335 -8.1015787 -2.1354163 263.31
1.0558234 -9.0013542 -2.147429 263.31
1.175981 -10.02575 -2.1456487 263.31
1.3316679 -11.353048 -2.1536891 263.31
1.4955152 -13.125968 -2.1704695 263.5
1.7579762 -15.429559 -2.1825125 263.5
1.8844442 -16.539555 -1.9466857 263.5
2.0831754 -18.283796 -1.7168287 263.5
2.6894803 -23.605267 -1.6613202 263.5
0.57326078 -5.031445 -2.1152012 263.5
0.61371255 -5.3864861 -2.116961 263.5
0.65868157 -5.7811742 -2.1177888 263.5
0.71104252 -6.2407403 -2.1223757 263.5
0.76963431 -6.7549934 -2.121464 263.5
0.84094483 -7.380878 -2.1301255 263.5
0.92472643 -8.1162195 -2.1384552 263.5
1.0250869 -8.9970722 -2.1455846 263.5
1.1438352 -10.039313 -2.1477277 263.5
1.293345 -11.351543 -2.1525784 263.5
1.4611464 -13.129838 -2.1704695 263.64999
1.7208614 -15.463634 -2.1866877 263.64999
1.7119502 -15.383557 -1.8100924 263.64999
2.0416887 -18.346582 -1.7222165 263.64999
2.3315411 -20.951191 -1.4740938 263.64999
0.55967832 -5.0292602 -2.1136594 263.64999
0.59919661 -5.3843713 -2.1155062 263.64999
0.64333642 -5.7810106 -2.1171048 263.64999
0.69554019 -6.250113 -2.1249366 263.64999
0.75131369 -6.7512927 -2.1196766 263.64999
0.82161885 -7.3830543 -2.1301255 263.64999
0.90197718 -8.1051521 -2.1349096 263.64999
1.0015291 -8.9997244 -2.1455846 263.64999
1.1177648 -10.044217 -2.1481435 263.64999
1.2636224 -11.354891 -2.1525784 263.64999
1.4180218 -13.138535 -2.171118 263.84
1.6680851 -15.455472 -2.1847394 263.84
1.9081904 -17.680143 -2.0795622 263.84
2.0539174 -19.030361 -1.7857546 263.84
2.2958775 -21.272217 -1.4961369 263.84
0.54220545 -5.0237494 -2.1105762 263.84
0.58193779 -5.3918853 -2.1176884 263.84
0.62456566 -5.7868495 -2.1184728 263.84
0.67379361 -6.2429662 -2.1217353 263.84
0.72912633 -6.7556453 -2.1202724 263.84
0.79692495 -7.3838267 -2.1295743 263.84
0.87488693 -8.1061754 -2.1344032 263.84
0.97188824 -9.0049314 -2.1460457 263.84
1.0846608 -10.049814 -2.1485593 263.84
1.2261721 -11.360972 -2.1529486 263.84
1.3792387 -13.144649 -2.1714423 264.01001
1.624494 -15.48202 -2.1878011 264.01001
1.8602846 -17.729191 -2.0846727 264.01001
2.0173938 -19.226498 -1.8035898 264.01001
2.2079754 -21.042812 -1.4795349 264.01001
5.0892835 -48.502728 -2.274296 264.01001
0.52768248 -5.029007 -2.1121178 264.01001
0.56515956 -5.3861771 -2.1147785 264.01001
0.60758913 -5.7905464 -2.1191568 264.01001
0.65526742 -6.2449379 -2.1217353 264.01001
0.70907873 -6.7577791 -2.1202724 264.01001
0.77621698 -7.3976312 -2.1328819 264.01001
0.85103351 -8.1106596 -2.1349096 264.01001
0.94536895 -9.0097103 -2.1465068 264.01001
1.0546335 -10.051043 -2.1481435 264.01001
1.1926632 -11.366515 -2.1533189 264.01001
1.3379369 -13.148916 -2.1714423 264.19
1.5790557 -15.518573 -2.1922548 264.19
1.8266973 -17.952335 -2.1102259 264.19
1.8797752 -18.47397 -1.7324346 264.19
2.1473098 -21.103235 -1.4833016 264.19
0.51188082 -5.0306396 -2.1121178 264.19
0.54804707 -5.3860726 -2.1140511 264.19
0.58882391 -5.7868171 -2.1171048 264.19
0.63583702 -6.2488503 -2.1223757 264.19
0.68745852 -6.7561746 -2.119081 264.19
0.75238901 -7.3942952 -2.131228 264.19
0.82535309 -8.1113682 -2.1344032 264.19
0.91627145 -9.0048914 -2.1446621 264.19
1.02226 -10.046521 -2.1464803 264.19
1.1565505 -11.366296 -2.1525784 264.19
1.2991114 -13.154792 -2.1717665 264.35999
1.5322256 -15.515306 -2.1911414 264.35999
1.8148115 -18.376768 -2.1594739 264.35999
1.9635131 -19.882519 -1.8639696 264.35999
2.1633127 -21.905687 -1.5392463 264.35999
0.49677104 -5.0302997 -2.111347 264.35999
0.53243005 -5.3913827 -2.1155062 264.35999
0.5714668 -5.7866688 -2.1164207 264.35999
0.61692107 -6.2469382 -2.1210952 264.35999
0.66778481 -6.7619843 -2.1202724 264.35999
0.73063534 -7.3984084 -2.1317792 264.35999
0.80128258 -8.1137819 -2.1344032 264.35999
0.88897562 -9.0017605 -2.1432788 264.35999
0.9924469 -10.04951 -2.1464803 264.35999
1.122821 -11.369677 -2.1525784 264.35999
1.2621827 -13.156404 -2.1714423 264.51999
1.4885145 -15.515581 -2.1905847 264.51999
1.806929 -18.834585 -2.2126708 264.51999
1.747479 -18.214905 -1.707168 264.51999
2.0055327 -20.904737 -1.4685133 264.51999
0.48254561 -5.0298305 -2.1105762 264.51999
0.51755035 -5.3947029 -2.1162336 264.51999
0.55548465 -5.7901125 -2.1171048 264.51999
0.59947395 -6.2486367 -2.1210952 264.51999
0.64926386 -6.7676239 -2.121464 264.51999
0.71033949 -7.4042473 -2.1328819 264.51999
0.77917588 -8.1217651 -2.1359227 264.51999
0.86457795 -9.0119572 -2.1451235 264.51999
0.96456635 -10.05419 -2.1468961 264.51999
1.0916296 -11.378637 -2.1536891 264.51999
1.2212092 -13.164235 -2.1720908 264.70001
1.4393978 -15.516237 -2.190028 264.70001
1.7642637 -19.018187 -2.233578 264.70001
1.9551449 -21.075821 -1.4800929 264.70001
4.5810366 -49.382072 -2.3127739 264.70001
0.46657112 -5.0294838 -2.1098051 264.70001
0.50059986 -5.3963022 -2.1162336 264.70001
0.53763896 -5.7955718 -2.1184728 264.70001
0.58019042 -6.2542624 -2.1223757 264.70001
0.62817597 -6.7715311 -2.1220596 264.70001
0.68654209 -7.4006991 -2.131228 264.70001
0.75365674 -8.1241732 -2.1359227 264.70001
0.83608204 -9.0126905 -2.1446621 264.70001
0.93315619 -10.059118 -2.1473119 264.70001
1.0560588 -11.383967 -2.1540594 264.70001
1.1819683 -13.165834 -2.1717665 264.87
1.3937081 -15.524384 -2.1905847 264.87
1.7065847 -19.009487 -2.2319517 264.87
1.7496017 -19.488651 -1.8255123 264.87
2.1145277 -23.553528 -1.6536469 264.87
4.4371762 -49.425293 -2.3141716 264.87
0.45181131 -5.0326843 -2.1105762 264.87
0.48425335 -5.394053 -2.1147785 264.87
0.51993668 -5.7915258 -2.1164207 264.87
0.56146169 -6.2540693 -2.1217353 264.87
0.60791099 -6.7714634 -2.121464 264.87
0.66475272 -7.4046187 -2.1317792 264.87
0.72954857 -8.1263733 -2.1359227 264.87
0.81020731 -9.0248232 -2.1469679 264.87
0.90330607 -10.061843 -2.1473119 264.87
1.0217501 -11.381179 -2.1529486 264.87
1.1432406 -13.173216 -2.172415 265.04001
1.3478115 -15.530424 -2.1908629 265.04001
1.7546132 -20.217878 -1.8933234 265.04001
2.0487738 -23.607401 -1.6569953 265.04001
4.304328 -49.597469 -2.3216248 265.04001
0.43703663 -5.0358415 -2.111347 265.04001
0.46840784 -5.3973217 -2.1155062 265.04001
0.50323808 -5.7986603 -2.1184728 265.04001
0.54290307 -6.2557077 -2.1217353 265.04001
0.58831221 -6.7789435 -2.1232512 265.04001
0.64277989 -7.4065585 -2.1317792 265.04001
0.70526671 -8.1265745 -2.1354163 265.04001
0.78275353 -9.0194321 -2.1451235 265.04001
0.87344807 -10.064478 -2.1473119 265.04001
0.9881469 -11.386118 -2.1533189 265.04001
1.1015213 -13.172809 -2.1717665 265.22
1.2995098 -15.540504 -2.1916981 265.22
1.5924176 -19.043312 -2.2347395 265.22
1.7775427 -21.257177 -1.9901168 265.22
1.9180726 -22.937737 -1.6095608 265.22
2.1698883 -25.949135 -1.2143368 265.22
0.42106017 -5.0353503 -2.1105762 265.22
0.45129412 -5.3969102 -2.1147785 265.22
0.48486197 -5.7983398 -2.1177888 265.22
0.52308965 -6.2554941 -2.1210952 265.22
0.56637627 -6.7731481 -2.1208682 265.22
0.61982876 -7.4123731 -2.1328819 265.22
0.67973286 -8.1287508 -2.1354163 265.22
0.75425214 -9.019908 -2.1446621 265.22
0.84215134 -10.071072 -2.1481435 265.22
0.95302665 -11.397 -2.1548002 265.22
1.0647316 -13.175834 -2.1717665 265.38
1.256267 -15.546045 -2.1919763 265.38
1.5416325 -19.077385 -2.238224 265.38
1.9046319 -23.569427 -1.6535075 265.38
2.5579658 -31.654301 -1.4809803 265.38
0.4066999 -5.0328274 -2.1090343 265.38
0.43607131 -5.3962927 -2.1140511 265.38
0.46897084 -5.8034177 -2.1191568 265.38
0.50577158 -6.2588191 -2.1217353 265.38
0.54807502 -6.7823153 -2.1232512 265.38
0.59912711 -7.4140749 -2.1328819 265.38
0.65703046 -8.1306171 -2.1354163 265.38
0.72921765 -9.0239182 -2.1451235 265.38
0.81355166 -10.067534 -2.1468961 265.38
0.92151314 -11.403536 -2.1555407 265.38
1.0233333 -13.179113 -2.1717665 265.56
1.2074215 -15.549915 -2.1919763 265.56
1.4796925 -19.056387 -2.235204 265.56
1.7733107 -22.837784 -2.1370718 265.56
1.9946061 -25.687761 -1.8016702 265.56
0.39131543 -5.0396004 -2.111347 265.56
0.41940469 -5.4013505 -2.1155062 265.56
0.4501546 -5.7973676 -2.1164207 265.56
0.48610646 -6.2603774 -2.1217353 265.56
0.52602607 -6.7744865 -2.1202724 265.56
0.57553452 -7.412087 -2.1317792 265.56
0.63148421 -8.1326408 -2.1354163 265.56
0.7013166 -9.0319853 -2.1465068 265.56
0.78237396 -10.075891 -2.1481435 265.56
0.88522696 -11.400496 -2.1544297 265.56
0.98496032 -13.191933 -2.1733875 265.73001
1.1612787 -15.55343 -2.1919763 265.73001
1.424032 -19.07258 -2.2365978 265.73001
1.7580292 -23.545925 -2.2028394 265.73001
1.8608913 -24.923595 -1.7476786 265.73001
2.5848553 -34.619907 -1.6189604 265.73001
0.37677315 -5.0462604 -2.1136594 265.73001
0.4030993 -5.3988557 -2.1140511 265.73001
0.43337134 -5.8042998 -2.1184728 265.73001
0.46738836 -6.2599025 -2.1210952 265.73001
0.50634992 -6.7817292 -2.1220596 265.73001
0.55353993 -7.4137621 -2.1317792 265.73001
0.60749549 -8.1364079 -2.1359227 265.73001
0.67422533 -9.0301456 -2.1455846 265.73001
0.75218344 -10.074267 -2.1473119 265.73001
0.85154349 -11.405032 -2.1548002 265.73001
0.94825912 -13.1966 -2.1737118 265.89001
1.117699 -15.554636 -2.1916981 265.89001
1.3711929 -19.082426 -2.2372947 265.89001
1.7312332 -24.092985 -2.2535584 265.89001
1.917405 -26.683872 -1.8707291 265.89001
2.3385375 -32.544628 -1.5216011 265.89001
0.3626799 -5.0472927 -2.1136594 265.89001
0.38828835 -5.4036765 -2.1155062 265.89001
0.41702628 -5.8036132 -2.1177888 265.89001
0.4507204 -6.2725224 -2.1249366 265.89001
0.48740983 -6.7831163 -2.1220596 265.89001
0.5325591 -7.4114437 -2.1306767 265.89001
0.58477199 -8.138073 -2.1359227 265.89001
0.64956373 -9.0397577 -2.147429 265.89001
0.72418809 -10.078279 -2.1477277 265.89001
0.81983221 -11.409326 -2.1551704 265.89001
0.90679616 -13.199513 -2.1737118 266.07001
1.0690987 -15.562023 -2.1922548 266.07001
1.3112371 -19.086639 -2.2372947 266.07001
1.6575818 -24.128105 -2.256345 266.07001
1.912739 -27.842228 -1.9515071 266.07001
2.195617 -31.959856 -1.4939305 266.07001
0.34644213 -5.0428839 -2.111347 266.07001
0.37118262 -5.4030113 -2.1147785 266.07001
0.39892048 -5.8067694 -2.1184728 266.07001
0.43023333 -6.2625656 -2.1210952 266.07001
0.46622851 -6.7865191 -2.1226554 266.07001
0.50914103 -7.4111624 -2.1301255 266.07001
0.55933523 -8.1417999 -2.1364293 266.07001
0.62116134 -9.0417538 -2.147429 266.07001
0.69292498 -10.08636 -2.1489751 266.07001
0.78398478 -11.411845 -2.1551704 266.07001
0.86762851 -13.202147 -2.1737118 266.23999
1.0227907 -15.56315 -2.1919763 266.23999
1.253558 -19.074589 -2.2354364 266.23999
1.8664933 -28.401232 -1.9902917 266.23999
2.471283 -37.603928 -1.7574064 266.23999
0.33147809 -5.0438895 -2.111347 266.23999
0.3553943 -5.4078069 -2.1162336 266.23999
0.38132 -5.8023014 -2.1164207 266.23999
0.41165006 -6.2638149 -2.1210952 266.23999
0.44558966 -6.780252 -2.1202724 266.23999
0.48727551 -7.4145584 -2.1306767 266.23999
0.53492188 -8.1395626 -2.1354163 266.23999
0.59420359 -9.0416145 -2.1469679 266.23999
0.66286683 -10.086419 -2.1485593 266.23999
0.74973506 -11.408237 -2.1540594 266.23999
0.8267647 -13.214655 -2.175333 266.42001
0.97401637 -15.568263 -2.1922548 266.42001
1.1946197 -19.094294 -2.2372947 266.42001
1.5157571 -24.227217 -2.2647054 266.42001
1.9937794 -31.867722 -2.2327652 266.42001
2.0123212 -32.164089 -1.5028745 266.42001
0.31574589 -5.0467477 -2.1121178 266.42001
0.33828712 -5.4070373 -2.1155062 266.42001
0.36332437 -5.8072224 -2.1177888 266.42001
0.39196971 -6.2650771 -2.1210952 266.42001
0.42452514 -6.7854295 -2.121464 266.42001
0.46409968 -7.4179716 -2.131228 266.42001
0.50922728 -8.1392717 -2.1349096 266.42001
0.56603867 -9.0473213 -2.1478901 266.42001
0.63129836 -10.090405 -2.1489751 266.42001
0.71413684 -11.414459 -2.1548002 266.42001
0.78731763 -13.21311 -2.1746845 266.59
0.92723113 -15.561199 -2.1908629 266.59
1.1383151 -19.103703 -2.2379916 266.59
1.916662 -32.16626 -2.2532737 266.59
2.1652389 -36.337986 -1.6975932 266.59
0.30077049 -5.0476623 -2.1121178 266.59
0.32213181 -5.4061575 -2.1147785 266.59
0.34609243 -5.8082747 -2.1177888 266.59
0.37326646 -6.2643213 -2.120455 266.59
0.40461767 -6.7904711 -2.1226554 266.59
0.44277421 -7.4308305 -2.1345358 266.59
0.48565078 -8.150404 -2.1374424 266.59
0.538845 -9.0431328 -2.1465068 266.59
0.60147315 -10.094186 -2.1493912 266.59
0.68050021 -11.420452 -2.1555407 266.59
0.75030482 -13.213286 -2.1743603 266.75
0.88422167 -15.571637 -2.1919763 266.75
1.0841748 -19.092924 -2.2363656 266.75
1.3732587 -24.183853 -2.2598751 266.75
1.7732157 -31.227318 -2.1871445 266.75
2.0155058 -35.494186 -1.6579041 266.75
0.28646436 -5.0447974 -2.1105762 266.75
0.30692813 -5.4051762 -2.1140511 266.75
0.32987133 -5.8092184 -2.1177888 266.75
0.35641626 -6.2766895 -2.1242964 266.75
0.38522059 -6.7839499 -2.1202724 266.75
0.42180371 -7.4281993 -2.1334331 266.75
0.46277899 -8.1497965 -2.1369357 266.75
0.51403105 -9.0523748 -2.1483512 266.75
0.57339346 -10.097779 -2.149807 266.75
0.64815992 -11.414459 -2.1540594 266.75
0.70679986 -13.221614 -2.175333 266.94
0.83257937 -15.574484 -2.1919763 266.94
1.0213846 -19.106333 -2.2375271 266.94
1.2931609 -24.190262 -2.2600608 266.94
1.69074 -31.627499 -2.2147679 266.94
1.9151754 -35.825855 -1.6730903 266.94
0.27002919 -5.0512486 -2.1128886 266.94
0.28920114 -5.4098849 -2.1155062 266.94
0.31040481 -5.8065271 -2.1164207 266.94
0.3350943 -6.2683764 -2.1210952 266.94
0.36282399 -6.7870965 -2.1208682 266.94
0.39655283 -7.4180384 -2.1301255 266.94
0.43554419 -8.1474228 -2.1359227 266.94
0.48359394 -9.0462561 -2.1465068 266.94
0.53959161 -10.093765 -2.1485593 266.94
0.6110391 -11.430284 -2.1566515 266.94
0.66957593 -13.217624 -2.1743603 267.10001
0.78898382 -15.57477 -2.1916981 267.10001
0.96702075 -19.089272 -2.235204 267.10001
1.2251002 -24.183834 -2.2591319 267.10001
1.6659038 -32.885426 -2.3025217 267.10001
1.9002295 -37.511082 -1.7515368 267.10001
0.25582904 -5.0501394 -2.1121178 267.10001
0.27399853 -5.4088106 -2.1147785 267.10001
0.29447398 -5.8130021 -2.1184728 267.10001
0.31778014 -6.2730722 -2.1223757 267.10001
0.34367627 -6.7842693 -2.1196766 267.10001
0.37622532 -7.4267974 -2.1323307 267.10001
0.4129864 -8.1524715 -2.1369357 267.10001
0.45823172 -9.0456276 -2.1460457 267.10001
0.51160038 -10.09914 -2.1493912 267.10001
0.57871962 -11.424094 -2.1551704 267.10001
0.62842292 -13.227547 -2.1756573 267.28
0.73995644 -15.575193 -2.1914196 267.28
0.90685683 -19.088247 -2.2347395 267.28
1.1487405 -24.179607 -2.2583888 267.28
1.5950581 -33.574055 -2.3503747 267.28
1.8463706 -38.86388 -1.8144245 267.28
0.23978716 -5.0472317 -2.1105762 267.28
0.25718173 -5.4133663 -2.1162336 267.28
0.27603212 -5.8101439 -2.1171048 267.28
0.29798126 -6.2721472 -2.1217353 267.28
0.3229048 -6.7967582 -2.1232512 267.28
0.35252661 -7.4202609 -2.1301255 267.28
0.38728082 -8.1517963 -2.1364293 267.28
0.42999652 -9.05091 -2.1469679 267.28
0.47996333 -10.102652 -2.149807 267.28
0.54301351 -11.429782 -2.155911 267.28
0.59130591 -13.225307 -2.1750088 267.44
0.69645947 -15.577199 -2.1914196 267.44
0.85363764 -19.09269 -2.2349718 267.44
1.0818366 -24.196646 -2.2596891 267.44
1.4976418 -33.496658 -2.3446546 267.44
1.7403337 -38.92477 -1.8170332 267.44
0.22610386 -5.0570998 -2.1144302 267.44
0.24198057 -5.4122024 -2.1155062 267.44
0.25989002 -5.8127699 -2.1177888 267.44
0.28054962 -6.2748475 -2.1223757 267.44
0.3036676 -6.7919116 -2.121464 267.44
0.3319757 -7.4250579 -2.131228 267.44
0.36460167 -8.1547785 -2.1369357 267.44
0.40463305 -9.0501318 -2.1465068 267.44
0.45183694 -10.105906 -2.1502228 267.44
