# .PCD v0.7 - Point Cloud Data file format
VERSION 0.7
FIELDS x y z intensity
SIZE 4 4 4 4
TYPE F F F F
COUNT 1 1 1 1
WIDTH 1169
HEIGHT 1
VIEWPOINT 0 0 0 1 0 0 0
POINTS 1169
DATA ascii
8.7087898 -33.054867 -1.5940849 255.24001
1.2892179 -4.8933239 -2.1136594 255.24001
11.033185 -41.877285 -1.0054452 255.24001
1.3821468 -5.2460423 -2.1184161 255.24001
1.4838394 -5.6320243 -2.1198409 255.24001
1.6026582 -6.0830097 -2.1255767 255.24001
1.7335681 -6.5798883 -2.1232512 255.24001
1.8935772 -7.1872149 -2.131228 255.24001
1.9884822 -7.5474343 -2.0432327 255.24001
2.2053785 -8.3706808 -2.0510552 255.24001
2.1999674 -8.3501415 -1.8354445 255.24001
2.5005946 -9.6068039 -1.6309323 255.41
3.9333115 -15.111027 -2.1944814 255.41
4.4559817 -17.119026 -2.068644 255.41
5.578043 -21.42977 -2.0659165 255.41
6.2701092 -24.088554 -1.7405635 255.41
8.9639597 -34.437813 -1.659488 255.41
1.2756232 -4.9006991 -2.1152012 255.41
1.3646983 -5.2429085 -2.1155062 255.41
1.4671224 -5.6364021 -2.1198409 255.41
1.5841253 -6.0859046 -2.1249366 255.41
1.7154803 -6.5905457 -2.1250384 255.41
1.8693383 -7.1816382 -2.1279204 255.41
1.9836254 -7.6207075 -2.0614667 255.41
2.1280782 -8.1756678 -2.0017154 255.41
2.1791246 -8.3717785 -1.838771 255.41
2.2318664 -8.5744019 -1.6693313 255.41
2.4735541 -9.619915 -1.6319051 255.58
4.3992329 -17.109085 -2.0658562 255.58
5.5263367 -21.492512 -2.0703754 255.58
6.2100368 -24.151495 -1.7437724 255.58
8.9308968 -34.733208 -1.6724381 255.58
1.3491362 -5.2469344 -2.1155062 255.58
1.4494563 -5.6370902 -2.1184728 255.58
1.5665329 -6.0924129 -2.1255767 255.58
1.694492 -6.5900598 -2.1232512 255.58
1.8499367 -7.1946011 -2.1301255 255.58
1.9817239 -7.7071352 -2.0832465 255.58
2.0965416 -8.1536741 -1.9947988 255.58
2.220531 -8.6358814 -1.8953229 255.58
2.2543814 -8.7675295 -1.7056211 255.58
2.3763266 -9.363658 -1.5871599 255.75999
2.8422108 -11.199424 -1.6238717 255.75999
4.3435068 -17.11512 -2.0649271 255.75999
4.3091321 -16.97967 -1.6343408 255.75999
6.3098278 -24.863195 -1.793718 255.75999
9.0384569 -35.615063 -1.7135248 255.75999
10.626111 -41.87104 -1.0029384 255.75999
1.3335624 -5.2547584 -2.116961 255.75999
1.433589 -5.6489024 -2.1212089 255.75999
1.5469192 -6.095468 -2.1249366 255.75999
1.6733108 -6.5935001 -2.1226554 255.75999
1.827798 -7.2022405 -2.1306767 255.75999
1.9746349 -7.7808356 -2.1014805 255.75999
2.0723519 -8.1658792 -1.9961821 255.75999
2.1380496 -8.4247532 -1.8475033 255.75999
2.7746007 -11.054315 -1.872492 255.91
4.5936785 -18.301718 -2.2066309 255.91
4.2942367 -17.108709 -1.6456735 255.91
6.0480042 -24.095911 -1.7372153 255.91
9.3780499 -37.363178 -1.7964432 255.91
1.319801 -5.2582316 -2.116961 255.91
1.4187953 -5.6526361 -2.1212089 255.91
1.5314173 -6.1013346 -2.1255767 255.91
1.6565081 -6.59971 -2.1232512 255.91
1.8112766 -7.2163248 -2.1334331 255.91
1.9735698 -7.8629189 -2.1222472 255.91
2.0528617 -8.1788263 -1.9980266 255.91
2.1097951 -8.4056549 -1.8420976 255.91
2.3583937 -9.3960991 -1.8252294 255.91
2.3942056 -9.6745358 -1.6374172 256.10001
4.2323236 -17.102026 -2.060281 256.10001
4.1872487 -16.919888 -1.6261662 256.10001
7.7936563 -31.492704 -1.5129366 256.10001
12.494257 -50.48695 -1.2075183 256.10001
1.3019092 -5.2607708 -2.1162336 256.10001
1.3991398 -5.6536613 -2.1198409 256.10001
1.5120865 -6.1100578 -2.1268573 256.10001
1.6341548 -6.6033134 -2.1226554 256.10001
1.7850271 -7.2129602 -2.1306767 256.10001
1.9572452 -7.9088612 -2.1328838 256.10001
2.0257285 -8.1855888 -1.9980266 256.10001
2.1133964 -8.5398388 -1.8699578 256.10001
2.3385537 -9.4496574 -1.8341167 256.10001
2.4571795 -10.049261 -1.6996715 256.26001
4.1641049 -17.030167 -1.6356412 256.26001
6.2091913 -25.394068 -1.8280381 256.26001
8.4127121 -34.405926 -1.6517551 256.26001
1.2867708 -5.2625766 -2.1155062 256.26001
1.3833463 -5.6575465 -2.1198409 256.26001
1.4945681 -6.1124163 -2.1262171 256.26001
1.6166155 -6.6115603 -2.123847 256.26001
1.7667044 -7.2253866 -2.1328819 256.26001
1.9374497 -7.9236932 -2.1354163 256.26001
2.0060978 -8.2044468 -2.0012543 256.26001
2.2608061 -9.2461414 -1.7933832 256.26001
2.2918696 -9.5024757 -1.6059659 256.44
2.736958 -11.347886 -1.6405725 256.44
4.1135316 -17.055389 -2.051686 256.44
5.2689605 -21.845991 -2.096571 256.44
6.1438847 -25.473574 -1.832363 256.44
8.3181658 -34.488506 -1.654457 256.44
12.266638 -50.859535 -1.2146673 256.44
1.2711053 -5.270215 -2.116961 256.44
1.3646845 -5.6582103 -2.1184728 256.44
1.475358 -6.1170812 -2.1262171 256.44
1.5958368 -6.6166062 -2.123847 256.44
1.7453488 -7.2365084 -2.1345358 256.44
1.9130007 -7.9316216 -2.1359227 256.44
1.9894388 -8.2485466 -2.0104768 256.44
2.1278157 -8.8222799 -1.9290047 256.44
2.2455719 -9.3105173 -1.8044924 256.44
2.8282468 -11.890146 -1.7176744 256.62
4.0634713 -17.083117 -1.6382421 256.62
6.0716753 -25.525745 -1.8347348 256.62
8.1949816 -34.452274 -1.6514757 256.62
1.2536799 -5.2705574 -2.1155062 256.62
1.3473369 -5.6642981 -2.1191568 256.62
1.4556949 -6.119843 -2.1255767 256.62
1.5750422 -6.6215873 -2.123847 256.62
1.723051 -7.2438259 -2.135087 256.62
1.8867302 -7.9319453 -2.1344032 256.62
1.9860328 -8.3494205 -2.0335326 256.62
2.0792649 -8.741374 -1.9098768 256.62
2.1094296 -8.8681889 -1.7174709 256.62
2.3839614 -10.156098 -1.7139381 256.79001
2.6028662 -11.088672 -1.600769 256.79001
3.72873 -15.88505 -1.9081236 256.79001
3.9595242 -16.868275 -1.6165055 256.79001
6.5019927 -27.69964 -1.9895941 256.79001
8.0557442 -34.318897 -1.6439291 256.79001
11.983143 -51.050312 -1.2174526 256.79001
1.2393135 -5.279695 -2.1176884 256.79001
1.3300952 -5.666441 -2.1184728 256.79001
1.4388295 -6.1296687 -2.1274974 256.79001
1.5549524 -6.6243725 -2.1232512 256.79001
1.7006718 -7.2451634 -2.1339843 256.79001
1.8631874 -7.9375086 -2.1344032 256.79001
1.9830426 -8.4481125 -2.0561275 256.79001
2.0510843 -8.7379827 -1.9077977 256.79001
2.3088427 -9.9689388 -1.6811898 256.95999
2.584254 -11.158088 -1.6096761 256.95999
3.9332712 -16.982769 -1.626352 256.95999
6.3072371 -27.232891 -1.9547158 256.95999
8.0070734 -34.572311 -1.6549228 256.95999
11.860495 -51.210308 -1.2204236 256.95999
1.2211208 -5.2724595 -2.1133237 256.95999
1.3145489 -5.6758556 -2.1205249 256.95999
1.4189261 -6.1265273 -2.1249366 256.95999
1.5357214 -6.6308169 -2.123847 256.95999
1.6787337 -7.2483044 -2.1334331 256.95999
1.8396282 -7.9430017 -2.1344032 256.95999
1.9750929 -8.5279007 -2.0741112 256.95999
2.0322115 -8.7745228 -1.9144509 256.95999
2.0039961 -8.6526966 -1.6734047 256.95999
2.3316047 -10.188492 -1.7171805 257.10999
2.5607769 -11.189914 -1.6132946 257.10999
2.822803 -12.334897 -1.4797599 257.10999
6.5786262 -28.746845 -2.0621409 257.10999
7.9143076 -34.583416 -1.654457 257.10999
1.207729 -5.2774544 -2.1140511 257.10999
1.2992657 -5.6774454 -2.1198409 257.10999
1.4033047 -6.1320682 -2.1255767 257.10999
1.5187826 -6.6366758 -2.1244426 257.10999
1.6593231 -7.2508001 -2.1328819 257.10999
1.8218485 -7.9609928 -2.1379488 257.10999
1.9731647 -8.6222048 -2.0957837 257.10999
2.0956423 -9.1573992 -1.9967839 257.10999
2.3167477 -10.12357 -1.9566873 257.10999
2.4485199 -10.856105 -1.8283951 257.29001
2.4724486 -10.962198 -1.5793364 257.29001
3.617501 -16.039064 -1.9227587 257.29001
3.8564229 -17.098383 -1.6352696 257.29001
6.465457 -28.666166 -2.0548861 257.29001
7.763864 -34.422966 -1.6456062 257.29001
11.553032 -51.223156 -1.2191237 257.29001
1.193193 -5.290309 -2.1176884 257.29001
1.2810097 -5.679666 -2.1191568 257.29001
1.3844503 -6.1382947 -2.1262171 257.29001
1.4983455 -6.6432772 -2.1250384 257.29001
1.6373819 -7.2597284 -2.1339843 257.29001
1.7964036 -7.9647899 -2.1374424 257.29001
1.9674765 -8.7232828 -2.1188395 257.29001
2.0668631 -9.1639376 -1.9967839 257.29001
2.3506608 -10.422222 -2.0129735 257.29001
2.4013009 -10.795896 -1.8170468 257.45999
2.506995 -11.271079 -1.6227584 257.45999
3.5138268 -15.797647 -1.8925595 257.45999
3.8272924 -17.206944 -1.6445588 257.45999
6.3335905 -28.47489 -2.0398188 257.45999
7.3354993 -32.979324 -1.5755447 257.45999
1.1770865 -5.2920074 -2.116961 257.45999
1.262928 -5.677938 -2.1171048 257.45999
1.3662316 -6.1423755 -2.1262171 257.45999
1.4773843 -6.6421022 -2.1232512 257.45999
1.6149999 -7.2608013 -2.1328819 257.45999
1.7748642 -7.979528 -2.1399748 257.45999
1.9589096 -8.8069687 -2.1377454 257.45999
2.0405138 -9.1738491 -1.9976156 257.45999
2.25401 -10.133697 -1.9559467 257.45999
2.2886639 -10.452927 -1.7580348 257.64999
2.459862 -11.234833 -1.6163564 257.64999
3.7804332 -17.266226 -1.6490176 257.64999
6.3189268 -28.860191 -2.0659077 257.64999
6.8432336 -31.254837 -1.4920672 257.64999
11.575647 -52.869007 -1.2565396 257.64999
1.1599296 -5.2977018 -2.1176884 257.64999
1.2448963 -5.6857667 -2.1184728 257.64999
1.3462604 -6.1487231 -2.1268573 257.64999
1.456167 -6.6506953 -2.1244426 257.64999
1.5921469 -7.2717509 -2.1345358 257.64999
1.7483934 -7.9853697 -2.1399748 257.64999
1.938435 -8.8533392 -2.147429 257.64999
2.0113361 -9.1862984 -1.998863 257.64999
2.1905468 -10.0048 -1.9296552 257.64999
2.2330728 -10.345853 -1.7389046 257.82001
2.4244275 -11.232402 -1.6149646 257.82001
3.1823111 -14.743686 -1.7638645 257.82001
3.6703665 -17.004854 -1.6230079 257.82001
5.9853363 -27.730135 -1.9837346 257.82001
7.2470064 -33.57547 -1.6018177 257.82001
11.42759 -52.944164 -1.2575145 257.82001
1.1438128 -5.2992988 -2.116961 257.82001
1.2288138 -5.6931095 -2.1198409 257.82001
1.3268116 -6.1471343 -2.1249366 257.82001
1.4360248 -6.65312 -2.123847 257.82001
1.5705642 -7.276443 -2.1345358 257.82001
1.7271419 -8.0018692 -2.1430137 257.82001
1.9096944 -8.8476381 -2.1446621 257.82001
1.9890239 -9.2151728 -2.0038528 257.82001
2.1894646 -10.143817 -1.9552062 257.82001
2.3888054 -11.228809 -1.8861101 257.98999
2.396035 -11.262793 -1.6183048 257.98999
3.1373117 -14.747234 -1.7631676 257.98999
3.5925479 -16.887115 -1.6107461 257.98999
6.2455325 -29.357723 -2.0988328 257.98999
7.0849972 -33.303707 -1.5878427 257.98999
11.343677 -53.322041 -1.2656846 257.98999
1.1280845 -5.302669 -2.116961 257.98999
1.2111346 -5.6930537 -2.1184728 257.98999
1.3093554 -6.1547503 -2.1262171 257.98999
1.4150864 -6.6517491 -2.1220596 257.98999
1.5493677 -7.2829514 -2.135087 257.98999
1.7001716 -7.9918194 -2.1389618 257.98999
1.8846495 -8.8589754 -2.1460457 257.98999
1.9791774 -9.3033123 -2.0217333 257.98999
2.1773524 -10.234854 -1.9714996 257.98999
2.3125558 -11.031103 -1.8517405 258.16
2.3788617 -11.347388 -1.6294386 258.16
3.5342555 -16.858721 -1.6070305 258.16
6.1694517 -29.428848 -2.1025996 258.16
6.9726248 -33.260056 -1.5847682 258.16
11.093932 -52.919067 -1.2553326 258.16
1.1111995 -5.3005228 -2.1147785 258.16
1.1942376 -5.6966224 -2.1184728 258.16
1.2914768 -6.1604629 -2.1268573 258.16
1.396911 -6.663393 -2.1244426 258.16
1.5273575 -7.2856345 -2.1345358 258.16
1.6772459 -8.0006161 -2.1399748 258.16
1.8595541 -8.8702421 -2.147429 258.16
1.9744445 -9.4182806 -2.0454352 258.16
2.2514207 -10.739483 -2.0674083 258.16
2.2977796 -11.124889 -1.8663313 258.32999
2.3371706 -11.315604 -1.6238717 258.32999
3.583308 -17.348881 -1.6527333 258.32999
6.1026893 -29.546673 -2.1097147 258.32999
6.9203825 -33.5056 -1.5954823 258.32999
11.263657 -54.53392 -1.2928412 258.32999
1.0973518 -5.3129191 -2.1184161 258.32999
1.17695 -5.6982999 -2.1177888 258.32999
1.2728095 -6.1624122 -2.1262171 258.32999
1.3763618 -6.6637688 -2.1232512 258.32999
1.505345 -7.2882514 -2.1339843 258.32999
1.6542829 -8.009347 -2.1409879 258.32999
1.8351955 -8.8852501 -2.1497345 258.32999
1.9690466 -9.5333014 -2.0691371 258.32999
2.2457848 -10.873152 -2.0918484 258.32999
2.2797229 -11.215215 -1.8802737 258.51001
2.3623657 -11.621781 -1.6667371 258.51001
2.5589745 -12.589008 -1.5022931 258.51001
3.5458441 -17.443964 -1.660722 258.51001
6.0181818 -29.606756 -2.1126447 258.51001
6.8536897 -33.717083 -1.6045196 258.51001
11.097855 -54.59647 -1.2934911 258.51001
1.0784287 -5.3053861 -2.1140511 258.51001
1.16054 -5.7093363 -2.1205249 258.51001
1.2530661 -6.1645236 -2.1255767 258.51001
1.35504 -6.6661892 -2.1226554 258.51001
1.4832067 -7.2967129 -2.135087 258.51001
1.6279565 -8.0088158 -2.1394682 258.51001
1.8057221 -8.8833437 -2.1478901 258.51001
1.9612994 -9.6487141 -2.092839 258.51001
2.2041762 -10.843558 -2.0848126 258.51001
2.2204792 -11.082211 -1.8569283 258.67001
2.2952731 -11.4555 -1.6419642 258.67001
3.4278717 -17.108198 -1.6278383 258.67001
5.9813399 -29.852327 -2.1289675 258.67001
6.7273231 -33.575459 -1.5968798 258.67001
11.962342 -59.702972 -1.4136766 258.67001
1.0661712 -5.3211641 -2.1191435 258.67001
1.1445919 -5.7125549 -2.1205249 258.67001
1.2362188 -6.1698565 -2.1262171 258.67001
1.3364191 -6.6699471 -2.1226554 258.67001
1.462447 -7.2989411 -2.1345358 258.67001
1.6052052 -8.0114336 -2.1389618 258.67001
1.7828197 -8.897892 -2.1501956 258.67001
1.9593291 -9.7788343 -2.1198676 258.67001
2.0862362 -10.412216 -2.0007536 258.67001
2.2116041 -11.2208 -1.8789768 258.85001
2.2539113 -11.435451 -1.6380674 258.85001
3.4349511 -17.427576 -1.6571921 258.85001
5.908361 -29.976675 -2.1365013 258.85001
7.0475521 -35.756477 -1.6995498 258.85001
11.83272 -60.034515 -1.4206399 258.85001
1.048008 -5.3171759 -2.1162336 258.85001
1.1266398 -5.7161226 -2.1205249 258.85001
1.217196 -6.1755686 -2.1268573 258.85001
1.3165659 -6.6797323 -2.1244426 258.85001
1.438766 -7.299727 -2.1334331 258.85001
1.5807769 -8.0202341 -2.1399748 258.85001
1.7556101 -8.9072685 -2.1511178 258.85001
1.9490269 -9.888588 -2.1423221 258.85001
2.0561755 -10.432217 -2.0033457 258.85001
2.1828125 -11.250562 -1.8828677 259.01999
2.1886621 -11.280712 -1.6149646 259.01999
3.2994053 -17.005659 -1.6161339 259.01999
5.869173 -30.25065 -2.1547775 259.01999
6.9733934 -35.941978 -1.7073758 259.01999
1.0325818 -5.3220906 -2.116961 259.01999
1.1100328 -5.7212853 -2.1212089 259.01999
1.1988674 -6.179153 -2.1268573 259.01999
1.2956501 -6.6779861 -2.1226554 259.01999
1.4178333 -7.3077383 -2.1345358 259.01999
1.5569736 -8.024889 -2.1399748 259.01999
1.7288034 -8.9105272 -2.1506567 259.01999
1.9256401 -9.9250546 -2.1489751 259.01999
2.0252135 -10.438272 -2.0033457 259.01999
2.156702 -11.305828 -1.8909737 259.20001
2.2715979 -11.908133 -1.703757 259.20001
4.1765809 -21.894403 -2.0794787 259.20001
5.8096247 -30.45512 -2.1680312 259.20001
6.6919842 -35.080608 -1.6654507 259.20001
1.0165551 -5.3289685 -2.1184161 259.20001
1.0917011 -5.722898 -2.1205249 259.20001
1.1794491 -6.182889 -2.1268573 259.20001
1.2746642 -6.6820235 -2.1226554 259.20001
1.3952287 -7.314045 -2.135087 259.20001
1.5321175 -8.031641 -2.1404812 259.20001
1.7022604 -8.9235611 -2.1525013 259.20001
1.8955499 -9.93682 -2.1502228 259.20001
1.9949887 -10.458097 -2.0059378 259.20001
2.1129541 -11.257867 -1.8818949 259.37
2.1434588 -11.420397 -1.6330571 259.37
4.1020498 -21.855814 -2.0746484 259.37
4.9975238 -26.626919 -1.8944464 259.37
8.0656796 -42.974121 -2.0390499 259.37
0.93515652 -4.9825349 -2.1175137 259.37
1.0003957 -5.3301301 -2.1176884 259.37
1.0740229 -5.7224178 -2.1191568 259.37
1.1603999 -6.1826367 -2.1255767 259.37
1.2558892 -6.6914058 -2.1244426 259.37
1.3731668 -7.3162632 -2.1345358 259.37
1.5093511 -8.0418568 -2.1420007 259.37
1.6750581 -8.9247475 -2.1515791 259.37
1.861728 -9.9193277 -2.1452329 259.37
1.9690259 -10.491014 -2.011122 259.37
2.0807908 -11.259842 -1.8812464 259.53
2.1673441 -11.728209 -1.6762009 259.53
2.562607 -13.867108 -1.6491076 259.53
4.0399156 -21.861309 -2.0740912 259.53
5.0427914 -27.2882 -1.9404856 259.53
7.9380178 -42.955219 -2.0370932 259.53
0.92190975 -4.9887567 -2.1190553 259.53
10.742975 -58.133766 -1.3725471 259.53
0.98449159 -5.3274069 -2.1155062 259.53
1.0590633 -5.7309389 -2.1212089 259.53
1.1431302 -6.185853 -2.1255767 259.53
1.2365046 -6.6911316 -2.1232512 259.53
1.3537787 -7.3257408 -2.1361895 259.53
1.4854819 -8.0384293 -2.1399748 259.53
1.6497754 -8.9274759 -2.1511178 259.53
1.8386422 -9.9494963 -2.1506386 259.53
1.9654372 -10.635626 -2.0377839 259.53
2.0344782 -11.206127 -1.871195 259.70999
2.1018317 -11.577118 -1.6536548 259.70999
2.6591928 -14.647123 -1.7408667 259.70999
3.9822435 -21.934631 -2.0798504 259.70999
4.9538307 -27.286242 -1.93923 259.70999
7.0436053 -38.796947 -1.8388342 259.70999
0.90491396 -4.984365 -2.115972 259.70999
0.96808302 -5.3323069 -2.1162336 259.70999
1.0400467 -5.7286901 -2.1191568 259.70999
1.1247066 -6.1950064 -2.1274974 259.70999
1.2154776 -6.6949835 -2.1232512 259.70999
1.3297273 -7.3242826 -2.1345358 259.70999
1.4595299 -8.0392494 -2.1389618 259.70999
1.6227638 -8.9383593 -2.1525013 259.70999
1.8063276 -9.9494495 -2.1493912 259.70999
1.9601014 -10.796453 -2.0674083 259.70999
2.3054807 -12.890763 -1.8404251 259.85999
4.1327024 -23.107409 -2.1900203 259.85999
5.0281477 -28.114162 -1.9971279 259.85999
6.9462318 -38.838852 -1.8399522 259.85999
0.89153695 -4.9849 -2.1152012 259.85999
0.9551037 -5.3403244 -2.1184161 259.85999
1.0243837 -5.7276936 -2.1177888 259.85999
1.1078171 -6.1941996 -2.1262171 259.85999
1.1989545 -6.7037807 -2.1250384 259.85999
1.3105478 -7.3277388 -2.1345358 259.85999
1.440522 -8.0544701 -2.1420007 259.85999
1.5986724 -8.9387455 -2.1515791 259.85999
1.7806182 -9.9560699 -2.149807 259.85999
1.9570892 -10.942781 -2.0944405 259.85999
2.1708987 -12.387621 -1.7674984 260.06
2.40165 -13.704338 -1.627039 260.06
4.0657668 -23.200153 -2.1974516 260.06
4.3662095 -24.914543 -1.7687452 260.06
6.7726822 -38.6464 -1.8297038 260.06
0.87413096 -4.9879818 -2.1152012 260.06
0.93517035 -5.3362856 -2.1155062 260.06
1.0060061 -5.7404904 -2.1212089 260.06
1.0858614 -6.1961622 -2.1255767 260.06
1.1745579 -6.7022834 -2.1232512 260.06
1.2852931 -7.3341627 -2.135087 260.06
1.410394 -8.0480156 -2.1389618 260.06
1.5684685 -8.9500227 -2.1529624 260.06
1.7482181 -9.9757137 -2.1527176 260.06
1.9480565 -11.116035 -2.1262867 260.06
2.1515493 -12.482118 -2.0809789 260.22
2.0161939 -11.696858 -1.6681287 260.22
4.0084057 -23.254589 -2.2015388 260.22
4.8432693 -28.098013 -1.9937795 260.22
6.0260549 -34.959892 -1.6543639 260.22
0.85957152 -4.9867663 -2.1136594 260.22
0.9212144 -5.3443842 -2.1176884 260.22
0.98901403 -5.737721 -2.1191568 260.22
1.0688761 -6.2010379 -2.1262171 260.22
1.1555127 -6.7036557 -2.1226554 260.22
1.2644807 -7.3358288 -2.1345358 260.22
1.3895575 -8.0614557 -2.1414943 260.22
1.5437998 -8.9562855 -2.1534235 260.22
1.7223476 -9.9921236 -2.1552126 260.22
1.9387078 -11.247328 -2.1503565 260.22
2.0613105 -12.1872 -2.0307217 260.39999
2.7218535 -16.092564 -1.5226846 260.39999
4.7503152 -28.085548 -1.9918263 260.39999
6.5362353 -38.644543 -1.8277473 260.39999
0.84328538 -4.9858027 -2.1121178 260.39999
0.9041093 -5.3454151 -2.116961 260.39999
0.97161043 -5.7445059 -2.1205249 260.39999
1.0493898 -6.2043653 -2.1262171 260.39999
1.1344469 -6.707253 -2.1226554 260.39999
1.2414283 -7.3397651 -2.1345358 260.39999
1.3645475 -8.0676889 -2.1420007 260.39999
1.5150061 -8.9572535 -2.1525013 260.39999
1.690948 -9.9974852 -2.1552126 260.39999
1.9092637 -11.288244 -2.157022 260.39999
2.0186744 -12.154325 -2.0242367 260.57001
2.1134424 -12.724918 -1.8128688 260.57001
2.3335991 -14.050469 -1.665601 260.57001
3.3060753 -19.905693 -1.882548 260.57001
4.6823263 -28.192024 -1.9983834 260.57001
6.464426 -38.921944 -1.8399522 260.57001
0.83090746 -5.0028472 -2.1182845 260.57001
0.8885504 -5.3499117 -2.1176884 260.57001
0.95456189 -5.7473636 -2.1205249 260.57001
1.0309765 -6.2074513 -2.1262171 260.57001
1.1151668 -6.7143559 -2.123847 260.57001
1.2196454 -7.3434162 -2.1345358 260.57001
1.3406042 -8.071702 -2.1420007 260.57001
1.4887415 -8.9636288 -2.1529624 260.57001
1.660957 -10.000528 -2.1547968 260.57001
1.8754404 -11.291921 -2.1566515 260.57001
1.9853611 -12.163811 -2.0248852 260.73001
2.1484072 -13.162753 -1.8743833 260.73001
3.8160126 -23.379753 -2.2100849 260.73001
4.5913687 -28.130165 -1.9930819 260.73001
6.9456143 -42.554039 -2.0107269 260.73001
0.81633914 -5.0015054 -2.1167428 260.73001
0.87330705 -5.3505335 -2.116961 260.73001
0.93881124 -5.7518616 -2.1212089 260.73001
1.0139432 -6.2121763 -2.1268573 260.73001
1.097335 -6.7230968 -2.1256342 260.73001
1.200063 -7.3524857 -2.1361895 260.73001
1.3158768 -8.062048 -2.1384552 260.73001
1.4633911 -8.9658308 -2.1525013 260.73001
1.6330239 -10.005128 -2.1547968 260.73001
1.8429503 -11.291295 -2.1555407 260.73001
1.9508224 -12.179391 -2.0265064 260.89999
2.0961871 -13.086933 -1.8626928 260.89999
2.3085592 -14.412817 -1.7069507 260.89999
3.1305876 -19.54491 -1.8466916 260.89999
4.5078845 -28.143663 -1.9930819 260.89999
6.841126 -42.710575 -2.0171556 260.89999
0.80091202 -5.0002608 -2.1152012 260.89999
0.85772258 -5.3549409 -2.1176884 260.89999
0.92084932 -5.7490544 -2.1191568 260.89999
0.99520725 -6.2132864 -2.1262171 260.89999
1.0761746 -6.7187824 -2.1232512 260.89999
1.1776344 -7.3522172 -2.135087 260.89999
1.2934805 -8.075469 -2.1409879 260.89999
1.4373982 -8.9739761 -2.1534235 260.89999
1.6036402 -10.011861 -2.1552126 260.89999
1.8116163 -11.310298 -2.1581328 260.89999
1.9269325 -12.277094 -2.0417457 261.07999
2.0777879 -13.238241 -1.8832904 261.07999
2.2269235 -14.188431 -1.6795391 261.07999
2.4661429 -15.712574 -1.4838557 261.07999
4.0324435 -25.691967 -1.8185513 261.07999
6.9098148 -44.024609 -2.0781798 261.07999
0.78519928 -5.0027523 -2.1152012 261.07999
0.84060645 -5.3557687 -2.116961 261.07999
0.90307504 -5.7537756 -2.1198409 261.07999
0.97597653 -6.2182541 -2.1268573 261.07999
1.0565418 -6.7315607 -2.12623 261.07999
1.154531 -7.3558807 -2.135087 261.07999
1.2666043 -8.0699358 -2.1384552 261.07999
1.4095002 -8.9803705 -2.1538846 261.07999
1.5706625 -10.007186 -2.1531334 261.07999
1.7775987 -11.325642 -2.1599844 261.07999
1.9184178 -12.464161 -2.0719001 261.25
2.0656159 -13.420522 -1.9083415 261.25
2.2570386 -14.664215 -1.7350591 261.25
2.4173915 -15.706045 -1.4825553 261.25
4.3729091 -28.411247 -2.0101025 261.25
6.778553 -44.040966 -2.0779934 261.25
0.77035242 -5.0050602 -2.1152012 261.25
0.82556212 -5.3637629 -2.1191435 261.25
0.88599926 -5.7564297 -2.1198409 261.25
0.95723408 -6.2192497 -2.1262171 261.25
1.0359833 -6.7308917 -2.1250384 261.25
1.132993 -7.3611736 -2.1356382 261.25
1.2435378 -8.0793953 -2.1399748 261.25
1.3828489 -8.9845133 -2.1538846 261.25
1.5421542 -10.019536 -2.1547968 261.25
1.7445852 -11.334751 -2.1607249 261.25
1.912343 -12.674701 -2.1059456 261.42001
1.9823523 -13.138711 -1.8674247 261.42001
2.1684723 -14.372284 -1.6997494 261.42001
2.4043515 -15.935653 -1.5035489 261.42001
3.8882482 -25.770681 -1.8224577 261.42001
0.75467277 -5.0018492 -2.1128886 261.42001
0.80853212 -5.3588204 -2.1162336 261.42001
0.8680746 -5.753458 -2.1177888 261.42001
0.93877703 -6.2220626 -2.1262171 261.42001
1.0151534 -6.7282724 -2.1232512 261.42001
1.1117207 -7.3683052 -2.1367407 261.42001
1.2192717 -8.0811357 -2.1394682 261.42001
1.3556045 -8.9847279 -2.1529624 261.42001
1.5124189 -10.024068 -2.1547968 261.42001
1.7112398 -11.341822 -2.1610951 261.42001
1.9048046 -12.899311 -2.1422606 261.60001
2.1459444 -14.532307 -1.7178688 261.60001
2.3615489 -15.992377 -1.5081935 261.60001
2.9565129 -20.021467 -1.4152193 261.60001
6.4650364 -43.781139 -2.063832 261.60001
0.73949444 -5.0078468 -2.1144302 261.60001
0.79196507 -5.3631768 -2.116961 261.60001
0.85109347 -5.7635937 -2.1205249 261.60001
0.91839486 -6.219358 -2.1242964 261.60001
0.99428982 -6.7333174 -2.123847 261.60001
1.0882862 -7.3698592 -2.1361895 261.60001
1.1924648 -8.0753565 -2.1369357 261.60001
1.3270872 -8.9870167 -2.1525013 261.60001
1.4806341 -10.026834 -2.154381 261.60001
1.6764613 -11.352974 -2.1622062 261.60001
1.8902538 -13.068976 -2.1694968 261.76999
2.0718775 -14.324698 -2.0341539 261.76999
2.1033854 -14.542542 -1.7183335 261.76999
2.3274858 -16.091944 -1.5169253 261.76999
3.8798342 -26.824684 -1.8952833 261.76999
6.3348207 -43.798153 -2.0637391 261.76999
0.72410429 -5.0063658 -2.1128886 261.76999
0.77658212 -5.3691907 -2.1184161 261.76999
0.8342579 -5.7679539 -2.1212089 261.76999
0.90102255 -6.2295566 -2.1268573 261.76999
0.97512716 -6.7419066 -2.1256342 261.76999
1.0664146 -7.3730559 -2.1361895 261.76999
1.1701614 -8.0903482 -2.1399748 261.76999
1.3009735 -8.9947672 -2.1534235 261.76999
1.4505974 -10.029247 -2.1539652 261.76999
1.6416438 -11.350118 -2.1607249 261.76999
1.859015 -13.11133 -2.1756573 261.92999
2.0368719 -14.365726 -2.0391643 261.92999
2.0663922 -14.573928 -1.7213533 261.92999
2.5151267 -17.738779 -1.6714975 261.92999
2.8148215 -19.852478 -1.4021051 261.92999
6.6174746 -46.67197 -2.198272 261.92999
0.71115738 -5.015677 -2.115972 261.92999
0.76132399 -5.369494 -2.1176884 261.92999
0.81709212 -5.7628179 -2.1184728 261.92999
0.88388884 -6.2339244 -2.1274974 261.92999
0.95602846 -6.742713 -2.1250384 261.92999
1.0460908 -7.3779087 -2.1367407 261.92999
1.1478359 -8.0955 -2.1404812 261.92999
1.2758504 -8.9983654 -2.1534235 261.92999
1.4239579 -10.042944 -2.1560442 261.92999
1.6115973 -11.366334 -2.1629467 261.92999
1.8183572 -13.121016 -2.1763058 262.10999
1.9944493 -14.391671 -2.0419478 262.10999
2.003145 -14.454417 -1.7064861 262.10999
2.297286 -16.576899 -1.5613277 262.10999
2.2936995 -16.55102 -1.1684209 262.10999
2.2970786 -16.575403 -0.78036559 262.10999
0.6946367 -5.0124025 -2.1136594 262.10999
2.3113065 -16.67807 -0.3909162 262.10999
0.7441957 -5.3700137 -2.116961 262.10999
0.79898369 -5.7653565 -2.1184728 262.10999
0.86351979 -6.23104 -2.1255767 262.10999
0.93484092 -6.7456832 -2.1250384 262.10999
1.0223795 -7.3773499 -2.1356382 262.10999
1.1221319 -8.0971498 -2.1399748 262.10999
1.2478421 -9.0042562 -2.1538846 262.10999
1.3926687 -10.049305 -2.15646 262.10999
1.5750717 -11.3655 -2.1618359 262.10999
1.9549322 -14.421077 -2.0452878 262.28
1.9575806 -14.440613 -1.7041631 262.28
2.2446139 -16.557989 -1.5589124 262.28
2.2452047 -16.562347 -0.77943391 262.28
0.67901784 -5.0089555 -2.111347 262.28
2.2475762 -16.579844 -0.38845587 262.28
0.72875983 -5.3758907 -2.1184161 262.28
2.2516747 -16.610075 0 262.28
0.78187406 -5.7677016 -2.1184728 262.28
2.2489192 -16.58975 0.38868797 262.28
0.84528267 -6.2354522 -2.1262171 262.28
2.2470832 -16.576206 0.78008604 262.28
0.91405255 -6.7427516 -2.1232512 262.28
2.2483337 -16.58543 1.1703742 262.28
1.000486 -7.3803511 -2.1356382 262.28
2.2585239 -16.660601 1.5685732 262.28
1.0975825 -8.0966082 -2.1389618 262.28
2.249243 -16.592138 1.9580685 262.28
1.2213819 -9.0098476 -2.1543458 262.28
2.2571645 -16.650574 2.3614893 262.28
1.3623202 -10.049516 -2.1556284 262.28
2.2571468 -16.650442 2.7605882 262.28
1.5418707 -11.374019 -2.1625764 262.28
2.2510257 -16.605288 3.1572134 262.28
1.7412419 -13.137444 -2.1772785 262.45001
1.9170798 -14.464118 -2.0505764 262.45001
2.1952138 -16.562603 -1.5587267 262.45001
2.197541 -16.580162 -1.1695371 262.45001
2.1965783 -16.572897 -0.77962023 262.45001
0.66585034 -5.0237541 -2.1167428 262.45001
0.71256131 -5.3761821 -2.1176884 262.45001
0.76500446 -5.7718592 -2.1191568 262.45001
0.82677799 -6.2379327 -2.1262171 262.45001
2.1989408 -16.590723 0.78045875 262.45001
0.894795 -6.7511115 -2.1250384 262.45001
2.1954439 -16.564339 1.1684209 262.45001
0.97732073 -7.3737578 -2.1328819 262.45001
2.2014933 -16.609982 1.5631855 262.45001
1.0745715 -8.107502 -2.1409879 262.45001
2.1997423 -16.596769 1.9578362 262.45001
1.1938767 -9.0076447 -2.1529624 262.45001
2.1976027 -16.580626 2.3506336 262.45001
1.3317255 -10.047696 -2.154381 262.45001
2.2020292 -16.614025 2.7534549 262.45001
1.5081166 -11.378543 -2.1625764 262.45001
2.1991644 -16.592409 3.1535106 262.45001
1.7030152 -13.148424 -2.1782513 262.62
1.899341 -14.664191 -2.0781326 262.62
2.0920906 -16.152348 -1.5195262 262.62
2.1496184 -16.596502 -1.1702346 262.62
2.150732 -16.605099 -0.7808314 262.62
0.65023053 -5.0202174 -2.1144302 262.62
2.1524892 -16.618666 -0.38905933 262.62
0.69684601 -5.3801203 -2.1184161 262.62
2.1533263 -16.625128 0 262.62
0.74763429 -5.7722397 -2.1184728 262.62
2.1517189 -16.612717 0.38892007 262.62
0.80850947 -6.2422371 -2.1268573 262.62
2.1517584 -16.613024 0.78120404 262.62
0.87402439 -6.7480569 -2.1232512 262.62
2.1521811 -16.616287 1.1716298 262.62
0.95741367 -7.3918777 -2.1372921 262.62
2.1524568 -16.618414 1.5633713 262.62
1.0512569 -8.1164103 -2.1425073 262.62
2.1532958 -16.624893 1.9603915 262.62
1.1666453 -9.007287 -2.1520402 262.62
2.1522133 -16.616535 2.3548088 262.62
1.3024101 -10.055483 -2.1552126 262.62
2.1501899 -16.600912 2.7502124 262.62
1.4751065 -11.388815 -2.1636875 262.62
2.1486619 -16.589117 3.151659 262.62
1.6634314 -13.167416 -2.180521 262.79999
1.8892556 -14.954999 -2.1184928 262.79999
2.1854575 -17.299677 -2.0391417 262.79999
3.697576 -29.269327 -2.062978 262.79999
0.63445586 -5.0222354 -2.1144302 262.79999
0.67970699 -5.3804345 -2.1176884 262.79999
0.72996765 -5.7782893 -2.1198409 262.79999
0.78723264 -6.2315879 -2.1223757 262.79999
0.8540169 -6.7602401 -2.12623 262.79999
0.93322289 -7.3872199 -2.135087 262.79999
2.1012361 -16.632998 1.5641145 262.79999
1.0247833 -8.1119947 -2.1404812 262.79999
2.1010566 -16.631577 1.9603915 262.79999
1.1383424 -9.0109072 -2.1520402 262.79999
2.1022344 -16.6409 2.3573139 262.79999
1.2703232 -10.055643 -2.154381 262.79999
2.1032205 -16.648705 2.7570214 262.79999
1.4385813 -11.387544 -2.1625764 262.79999
2.1026936 -16.644533 3.1609166 262.79999
1.623631 -13.166417 -2.1795483 262.97
1.8809921 -15.25342 -2.1599665 262.97
1.9153095 -15.531709 -1.8300704 262.97
3.0410399 -24.660528 -1.7374942 262.97
0.61955178 -5.0240955 -2.1144302 262.97
0.66442394 -5.3879747 -2.1198709 262.97
0.71305001 -5.7822948 -2.1205249 262.97
0.77036297 -6.2470598 -2.1268573 262.97
0.8327868 -6.7532701 -2.1232512 262.97
0.91035926 -7.3823237 -2.1328819 262.97
1.00071 -8.1149998 -2.1404812 262.97
1.1120778 -9.0181084 -2.1529624 262.97
2.0535779 -16.65296 2.3581491 262.97
1.2412002 -10.065193 -2.1556284 262.97
1.404547 -11.389812 -2.1622062 262.97
1.5864441 -13.186852 -2.182142 263.14001
1.8442423 -15.329722 -2.169987 263.14001
2.2289352 -18.527369 -1.7409806 263.14001
2.4354827 -20.244236 -1.4258224 263.14001
5.9322953 -49.310463 -2.316128 263.14001
0.60530359 -5.0314083 -2.1167428 263.14001
0.64776707 -5.3843732 -2.1176884 263.14001
0.69589043 -5.7843852 -2.1205249 263.14001
0.75205052 -6.2511992 -2.1274974 263.14001
0.8132019 -6.7595024 -2.1244426 263.14001
0.88914043 -7.3907185 -2.1345358 263.14001
0.97616577 -8.1140919 -2.1394682 263.14001
1.0848508 -9.0175037 -2.1520402 263.14001
2.0015564 -16.63735 2.3550873 263.14001
1.2113308 -10.068831 -2.1556284 263.14001
1.3716856 -11.401733 -2.1636875 263.14001
1.5470811 -13.18954 -2.181818 263.31
1.8155931 -15.478722 -2.1903062 263.31
2.0498989 -17.476278 -2.0577257 263.31
1.9883637 -16.951666 -1.5923536 263.31
2.3867953 -20.348467 -1.4326584 263.31
0.58929753 -5.0240178 -2.1128886 263.31
0.63222253 -5.3899722 -2.1191435 263.31
0.67894375 -5.788291 -2.1212089 263.31
0.73327881 -6.2515211 -2.1268573 263.31
0.79292011 -6.7599893 -2.123847 263.31
0.86810368 -7.4009619 -2.1367407 263.31
0.95231193 -8.1188736 -2.1399748 263.31
1.0580906 -9.0206833 -2.1520402 263.31
1.1814507 -10.072381 -2.1556284 263.31
1.338079 -11.407705 -2.1640577 263.31
1.5083884 -13.197994 -2.1824663 263.48001
1.7750562 -15.531266 -2.1969867 263.48001
2.0115705 -17.600702 -2.0716639 263.48001
2.3413618 -20.486286 -1.4418663 263.48001
0.5752266 -5.0330782 -2.115972 263.48001
0.61538124 -5.3844204 -2.1162336 263.48001
0.66133976 -5.7865453 -2.1198409 263.48001
0.71451181 -6.2517867 -2.1262171 263.48001
0.77307612 -6.7642088 -2.1244426 263.48001
0.84461272 -7.3901343 -2.1328819 263.48001
0.92843831 -8.1235857 -2.1404812 263.48001
1.0315421 -9.0257168 -2.1525013 263.48001
1.1515602 -10.075842 -2.1556284 263.48001
1.3046721 -11.415531 -2.1647983 263.48001
1.4664825 -13.198745 -2.181818 263.66
1.7273482 -15.546608 -2.1983783 263.66
1.967015 -17.703676 -2.0830467 263.66
2.0551991 -18.497355 -1.736336 263.66
2.261348 -20.352753 -1.4319609 263.66
0.5592081 -5.0330262 -2.1152012 263.66
0.59969693 -5.3974371 -2.1205986 263.66
0.64315754 -5.7885947 -2.1198409 263.66
0.69382161 -6.2445846 -2.1230159 263.66
0.75266528 -6.7741942 -2.1268256 263.66
0.8230902 -7.4080377 -2.1372921 263.66
0.90227175 -8.1206932 -2.1389618 263.66
1.0023223 -9.0211754 -2.1506567 263.66
1.1199003 -10.079411 -2.1556284 263.66
1.2681516 -11.413713 -2.1636875 263.66
1.4277389 -13.206962 -2.1824663 263.82999
1.6822773 -15.56151 -2.19977 263.82999
1.9247267 -17.804232 -2.094197 263.82999
2.0244925 -18.727091 -1.7573296 263.82999
2.4507661 -22.670235 -1.5944935 263.82999
0.54427236 -5.0346632 -2.1152012 263.82999
0.5824784 -5.3880792 -2.1162336 263.82999
0.62618166 -5.792346 -2.1205249 263.82999
0.67671603 -6.2598023 -2.1274974 263.82999
0.73215216 -6.7726011 -2.1256342 263.82999
0.79966009 -7.3970675 -2.1334331 263.82999
0.87879711 -8.1291056 -2.1404812 263.82999
0.97638822 -9.0318489 -2.1525013 263.82999
1.0899892 -10.082689 -2.1556284 263.82999
1.800211 -16.652428 2.7518337 263.82999
1.2342809 -11.417425 -2.1636875 263.82999
1.386447 -13.213345 -2.1827905 264.01001
1.6368947 -15.600204 -2.2045019 264.01001
1.8776975 -17.895142 -2.1041861 264.01001
1.9367645 -18.458073 -1.7315056 264.01001
2.3774514 -22.657978 -1.5930984 264.01001
4.9356313 -47.038364 -2.205632 264.01001
0.52845287 -5.0363483 -2.1152012 264.01001
0.56652045 -5.3991466 -2.1198709 264.01001
0.60758913 -5.7905464 -2.1191568 264.01001
0.6558606 -6.2505908 -2.123656 264.01001
0.71107107 -6.7767668 -2.12623 264.01001
0.77601635 -7.3957191 -2.1323307 264.01001
0.85285068 -8.1279783 -2.1394682 264.01001
0.94821215 -9.036808 -2.1529624 264.01001
1.0576957 -10.080227 -2.154381 264.01001
1.747887 -16.658001 2.7518337 264.01001
1.1979958 -11.417337 -2.1629467 264.01001
1.349543 -13.217165 -2.1827905 264.17001
1.5925196 -15.596832 -2.2033885 264.17001
1.8650467 -18.265911 -2.1471617 264.17001
1.9402314 -19.002254 -1.7820389 264.17001
2.30586 -22.583153 -1.5873783 264.17001
0.51401174 -5.0341325 -2.1136594 264.17001
0.55144101 -5.4007077 -2.1198709 264.17001
0.59103471 -5.7884812 -2.1177888 264.17001
0.63840312 -6.252398 -2.123656 264.17001
0.69136828 -6.7711287 -2.123847 264.17001
0.75672764 -7.4112453 -2.1361895 264.17001
0.83034629 -8.1322527 -2.1399748 264.17001
0.92297292 -9.0394201 -2.1529624 264.17001
1.0299398 -10.087033 -2.1552126 264.17001
1.702966 -16.678524 2.7544277 264.17001
1.1665072 -11.424549 -2.1636875 264.17001
1.3105156 -13.223075 -2.1831148 264.34
1.5466267 -15.605431 -2.2039452 264.34
1.8541398 -18.708233 -2.1985004 264.34
1.8370996 -18.536297 -1.7378223 264.34
2.1802073 -21.998245 -1.5458034 264.34
0.49907294 -5.0356355 -2.1136594 264.34
0.53523064 -5.400466 -2.1191435 264.34
0.57459879 -5.7976899 -2.1205249 264.34
0.61984915 -6.2542648 -2.123656 264.34
0.67052174 -6.7655506 -2.121464 264.34
0.73454511 -7.4115448 -2.1356382 264.34
0.80640465 -8.1366062 -2.1404812 264.34
0.8955726 -9.0363092 -2.1515791 264.34
1.0000064 -10.090045 -2.1552126 264.34
1.6523046 -16.671719 2.7524822 264.34
1.1320233 -11.422092 -2.1625764 264.34
1.2691561 -13.229092 -2.183439 264.51999
1.4972149 -15.60627 -2.2033885 264.51999
1.833867 -19.115374 -2.2456577 264.51999
1.8651947 -19.441919 -1.8221682 264.51999
2.1122303 -22.016901 -1.5466405 264.51999
0.48307434 -5.0353417 -2.1128886 264.51999
0.51826197 -5.4021211 -2.1191435 264.51999
0.556382 -5.7994666 -2.1205249 264.51999
0.60146439 -6.2693839 -2.1281378 264.51999
0.64981085 -6.773325 -2.1232512 264.51999
0.71015584 -7.4023333 -2.1323307 264.51999
0.78083879 -8.1390991 -2.1404812 264.51999
0.86736566 -9.0410156 -2.1520402 264.51999
0.96905011 -10.100925 -2.1568758 264.51999
1.0966973 -11.431461 -2.1636875 264.51999
1.2318426 -13.228654 -2.1827905 264.67999
1.4543628 -15.618278 -2.2045019 264.67999
1.7856368 -19.175802 -2.252162 264.67999
1.8094183 -19.431189 -1.8206819 264.67999
2.1345372 -22.922615 -1.6098399 264.67999
0.46935338 -5.0403461 -2.1144302 264.67999
0.50265622 -5.3979821 -2.116961 264.67999
0.54018474 -5.8009977 -2.1205249 264.67999
0.58254921 -6.2559462 -2.1230159 264.67999
0.6312477 -6.7789154 -2.1244426 264.67999
0.69001669 -7.4100304 -2.1339843 264.67999
0.75756896 -8.1354685 -2.1389618 264.67999
0.84211504 -9.0434017 -2.1520402 264.67999
0.93993229 -10.093853 -2.1547968 264.67999
1.0645882 -11.432523 -2.163317 264.67999
1.1881446 -13.234632 -2.1831148 264.87
1.4029168 -15.62696 -2.2050586 264.87
1.8154833 -20.2225 -1.8942523 264.87
2.181783 -24.302677 -1.7062434 264.87
0.45313144 -5.047389 -2.1167428 264.87
0.48491967 -5.401475 -2.1176884 264.87
0.52044082 -5.7971416 -2.1184728 264.87
0.56213939 -6.2616181 -2.1242964 264.87
0.60910594 -6.7847743 -2.1256342 264.87
0.66544032 -7.4122777 -2.1339843 264.87
0.73058659 -8.1379356 -2.1389618 264.87
0.81246948 -9.0500212 -2.1529624 264.87
0.90662962 -10.098864 -2.1552126 264.87
1.027198 -11.441862 -2.164428 264.87
1.1513529 -13.239864 -2.183439 265.03
1.358758 -15.624897 -2.2042236 265.03
1.6684659 -19.186352 -2.252162 265.03
1.8381907 -21.138084 -1.9795271 265.03
2.1005995 -24.155628 -1.6955009 265.03
2.3893714 -27.476332 -1.2861685 265.03
0.43871498 -5.0449576 -2.1152012 265.03
0.46967262 -5.4009519 -2.116961 265.03
0.50473857 -5.8041892 -2.1205249 265.03
0.54465145 -6.2631636 -2.1242964 265.03
0.58999157 -6.7845469 -2.1250384 265.03
0.6445722 -7.4121919 -2.1334331 265.03
0.70802599 -8.1418724 -2.1394682 265.03
0.78685671 -9.048378 -2.1520402 265.03
0.87876379 -10.105253 -2.1560442 265.03
0.9952423 -11.444686 -2.164428 265.03
1.1094234 -13.239483 -2.1827905 265.20999
1.3106565 -15.640931 -2.2058938 265.20999
1.6139878 -19.260782 -2.2602925 265.20999
1.8953248 -22.618162 -2.1175644 265.20999
1.9124131 -22.822088 -1.6014692 265.20999
0.42270952 -5.0444717 -2.1144302 265.20999
0.45285833 -5.4042573 -2.1176884 265.20999
0.48603091 -5.800128 -2.1184728 265.20999
0.52481431 -6.2629557 -2.123656 265.20999
0.56851494 -6.7844644 -2.1244426 265.20999
0.62144351 -7.4160962 -2.1339843 265.20999
0.6824441 -8.1440563 -2.1394682 265.20999
0.75940156 -9.0624409 -2.1548069 265.20999
0.84701288 -10.107965 -2.1560442 265.20999
0.95928288 -11.447757 -2.164428 265.20999
1.0730847 -13.250398 -2.1840875 265.37
1.2664942 -15.638608 -2.2050586 265.37
1.5563469 -19.217695 -2.2547174 265.37
1.8381032 -22.696806 -2.1244385 265.37
1.9556105 -24.147781 -1.6941057 265.37
0.40877002 -5.047472 -2.1152012 265.37
0.43821618 -5.4110718 -2.1198709 265.37
0.47028714 -5.8070822 -2.1205249 265.37
0.5070169 -6.2606196 -2.1223757 265.37
0.54956698 -6.7860255 -2.1244426 265.37
0.60119706 -7.4235516 -2.1356382 265.37
0.66001129 -8.1497869 -2.1404812 265.37
0.73314899 -9.0528879 -2.1520402 265.37
0.81878287 -10.110291 -2.1560442 265.37
0.927311 -11.450391 -2.164428 265.37
1.0319116 -13.259606 -2.1850603 265.54999
1.2172042 -15.640534 -2.2047803 265.54999
1.4968899 -19.234371 -2.2561111 265.54999
1.8149964 -23.321898 -2.1824031 265.54999
1.9190578 -24.659042 -1.729542 265.54999
2.7794793 -35.715076 -1.6705749 265.54999
0.39233819 -5.0413718 -2.1121178 265.54999
0.42107013 -5.4105644 -2.1191435 265.54999
0.45204136 -5.8085308 -2.1205249 265.54999
0.48749313 -6.2640705 -2.1230159 265.54999
0.52854162 -6.7915254 -2.1256342 265.54999
0.57757401 -7.4215698 -2.1345358 265.54999
0.6350053 -8.1595364 -2.1425073 265.54999
0.70500696 -9.0590267 -2.1529624 265.54999
0.78701645 -10.112813 -2.1560442 265.54999
0.89133406 -11.453247 -2.164428 265.54999
0.99256504 -13.262609 -2.1850603 265.72
1.1712359 -15.650002 -2.2056153 265.72
1.4408517 -19.252596 -2.2577372 265.72
1.7988468 -24.036112 -2.248728 265.72
1.7519301 -23.409212 -1.6415093 265.72
2.2182984 -29.640804 -1.3861364 265.72
0.37792936 -5.0498748 -2.1152012 265.72
0.40431964 -5.4025006 -2.1155062 265.72
0.43452463 -5.8060985 -2.1191568 265.72
0.47003639 -6.2806048 -2.1281378 265.72
0.50796103 -6.7873521 -2.123847 265.72
0.55555129 -7.4232512 -2.1345358 265.72
0.61035949 -8.1555958 -2.1409879 265.72
0.6781252 -9.0610781 -2.1529624 265.72
0.75729972 -10.119005 -2.1568758 265.72
0.85734773 -11.455842 -2.164428 265.72
0.95524144 -13.261393 -2.1844118 265.88
1.127813 -15.657163 -2.206172 265.88
1.3865118 -19.248619 -2.256808 265.88
1.7530359 -24.336985 -2.2764099 265.88
1.8078192 -25.09753 -1.7595373 265.88
2.5496163 -35.395725 -1.6549228 265.88
0.36409116 -5.0545921 -2.1167428 265.88
0.389633 -5.4091835 -2.1176884 265.88
0.41830927 -5.8072891 -2.1191568 265.88
0.45154291 -6.2686639 -2.123656 265.88
0.48955387 -6.7963614 -2.12623 265.88
0.53481948 -7.4247737 -2.1345358 265.88
0.58786047 -8.161128 -2.1420007 265.88
0.65281928 -9.0629368 -2.1529624 265.88
0.72903919 -10.12108 -2.1568758 265.88
0.8260597 -11.467993 -2.1662796 265.88
0.91153038 -13.268425 -2.1850603 266.07001
1.07575 -15.658841 -2.2058938 266.07001
1.3229458 -19.257074 -2.2572727 266.07001
1.8669307 -27.17543 -1.9047703 266.07001
2.4212718 -35.244534 -1.6474695 266.07001
0.34720105 -5.0539308 -2.115972 266.07001
0.37182105 -5.4123044 -2.1184161 266.07001
0.39956453 -5.8161445 -2.1218929 266.07001
0.43075278 -6.2701268 -2.123656 266.07001
0.46662107 -6.792233 -2.1244426 266.07001
0.51019514 -7.426506 -2.1345358 266.07001
0.56039613 -8.1572418 -2.1404812 266.07001
0.6230287 -9.0689344 -2.1538846 266.07001
0.69547248 -10.123442 -2.1568758 266.07001
0.78748709 -11.462826 -2.1647983 266.07001
1.1452644 -16.670706 3.1483262 266.07001
0.87447441 -13.270919 -2.1850603 266.23001
1.0324088 -15.667712 -2.2067287 266.23001
1.269426 -19.264658 -2.2577372 266.23001
1.6053854 -24.363136 -2.2778959 266.23001
1.7910354 -27.180538 -1.9047703 266.23001
0.33284378 -5.0511975 -2.1144302 266.23001
0.35695061 -5.4170394 -2.1198709 266.23001
0.3830741 -5.8134866 -2.1205249 266.23001
0.4134908 -6.2750869 -2.1249366 266.23001
0.44727519 -6.7877946 -2.1226554 266.23001
0.48932803 -7.4259834 -2.1339843 266.23001
0.53774184 -8.1607056 -2.1409879 266.23001
0.5975731 -9.0686979 -2.1534235 266.23001
0.6669426 -10.121441 -2.1560442 266.23001
0.75560308 -11.466942 -2.1651685 266.23001
1.0934081 -16.593431 3.1331437 266.23001
0.83058488 -13.275716 -2.1853845 266.42001
0.98057079 -15.673027 -2.2070069 266.42001
1.2056592 -19.270744 -2.2579696 266.42001
1.7078681 -27.297838 -1.912583 266.42001
2.234374 -35.713284 -1.6687115 266.42001
0.3160916 -5.0522733 -2.1144302 266.42001
0.33851978 -5.4107561 -2.116961 266.42001
0.36355907 -5.8109736 -2.1191568 266.42001
0.39256126 -6.2745323 -2.1242964 266.42001
0.42535967 -6.798768 -2.1256342 266.42001
0.46493998 -7.4314032 -2.135087 266.42001
0.51031458 -8.1566515 -2.1394682 266.42001
0.56737536 -9.0686865 -2.1529624 266.42001
0.6337415 -10.129454 -2.1572917 266.42001
0.71745044 -11.467422 -2.1647983 266.42001
1.0393581 -16.612658 3.1361063 266.42001
0.79327345 -13.274043 -2.184736 266.57999
0.93644524 -15.669773 -2.206172 266.57999
1.1508925 -19.258171 -2.2561111 266.57999
1.4598566 -24.428146 -2.283098 266.57999
1.9012097 -31.813417 -2.2285798 266.57999
2.2581058 -37.78545 -1.7652323 266.57999
0.30198175 -5.0531363 -2.1144302 266.57999
0.32396448 -5.4209785 -2.1205986 266.57999
0.34766674 -5.8175945 -2.1212089 266.57999
0.37492493 -6.2737126 -2.123656 266.57999
0.4060306 -6.7942119 -2.123847 266.57999
0.44395643 -7.428834 -2.1339843 266.57999
0.48753494 -8.1580448 -2.1394682 266.57999
0.54239696 -9.0760641 -2.1543458 266.57999
0.60545224 -10.131185 -2.1572917 266.57999
0.68542457 -11.469381 -2.1647983 266.57999
0.99460429 -16.642963 3.1412904 266.57999
0.75399703 -13.278309 -2.1850603 266.75
0.89084631 -15.688301 -2.2083988 266.75
1.0936347 -19.25952 -2.2558789 266.75
1.3861287 -24.410501 -2.2810543 266.75
1.803642 -31.763145 -2.2246735 266.75
1.8094815 -31.86598 -1.4884336 266.75
0.28719676 -5.0576954 -2.115972 266.75
0.30745623 -5.4144759 -2.1176884 266.75
0.33019099 -5.8148475 -2.1198409 266.75
0.35630882 -6.2747974 -2.123656 266.75
0.38597825 -6.7972927 -2.1244426 266.75
0.42180371 -7.4281993 -2.1334331 266.75
0.46332744 -8.1594553 -2.1394682 266.75
0.51524472 -9.0737476 -2.1534235 266.75
0.57505709 -10.127077 -2.1560442 266.75
0.65172553 -11.477251 -2.1659093 266.75
0.71491432 -13.2864 -2.186033 266.92001
0.84365582 -15.679009 -2.2067287 266.92001
1.0369128 -19.270613 -2.256808 266.92001
1.3148723 -24.43638 -2.283098 266.92001
1.7418723 -32.372005 -2.2669458 266.92001
1.9419576 -36.090511 -1.6854815 266.92001
0.27199072 -5.0548396 -2.1144302 266.92001
0.29138982 -5.4153643 -2.1176884 266.92001
0.31293654 -5.8158016 -2.1198409 266.92001
0.33758777 -6.2739353 -2.1230159 266.92001
0.36580861 -6.798408 -2.1244426 266.92001
0.39996859 -7.4332576 -2.1345358 266.92001
0.4394277 -8.1665897 -2.1409879 266.92001
0.48821557 -9.0732927 -2.1529624 266.92001
0.5453223 -10.134599 -2.1572917 266.92001
0.61735225 -11.473247 -2.1647983 266.92001
0.67548972 -13.288463 -2.186033 267.09
0.7970311 -15.679465 -2.2064502 267.09
0.97993296 -19.277573 -2.2572727 267.09
1.2418569 -24.430229 -2.2821691 267.09
1.7176278 -33.789753 -2.3658605 267.09
1.9985653 -39.316452 -1.8358529 267.09
0.25680414 -5.0519381 -2.1128886 267.09
0.27522627 -5.4143443 -2.116961 267.09
0.29558396 -5.8148274 -2.1191568 267.09
0.31945214 -6.2843709 -2.1262171 267.09
0.34563574 -6.7994633 -2.1244426 267.09
0.37781432 -7.4324918 -2.1339843 267.09
0.41499862 -8.1639929 -2.1399748 267.09
0.46119365 -9.0727577 -2.1525013 267.09
0.51524997 -10.136172 -2.1572917 267.09
0.58340752 -11.476991 -2.1651685 267.09
0.63383353 -13.29249 -2.1863573 267.26999
0.74795741 -15.685848 -2.2070069 267.26999
0.9191767 -19.276588 -2.256808 267.26999
1.1649114 -24.430033 -2.2817974 267.26999
1.6249596 -34.077972 -2.3856714 267.26999
1.8792262 -39.410343 -1.8399522 267.26999
0.24110757 -5.0564065 -2.1144302 267.26999
0.258304 -5.4170432 -2.1176884 267.26999
0.2772252 -5.8138504 -2.1184728 267.26999
0.29943693 -6.2796655 -2.1242964 267.26999
0.32436386 -6.802423 -2.1250384 267.26999
0.35437107 -7.4317217 -2.1334331 267.26999
0.38925651 -8.1633244 -2.1394682 267.26999
0.43324468 -9.085825 -2.155268 267.26999
0.48321742 -10.133833 -2.15646 267.26999
0.54791039 -11.490546 -2.1673903 267.26999
0.59456748 -13.298255 -2.1870058 267.44
0.70105946 -15.680084 -2.2058938 267.44
0.86259902 -19.293121 -2.2584341 267.44
1.0918874 -24.421446 -2.2806828 267.44
1.7737964 -39.673206 -1.8519707 267.44
0.22602144 -5.0552559 -2.1136594 267.44
0.242147 -5.4159245 -2.116961 267.44
0.2600579 -5.816525 -2.1191568 267.44
0.28046498 -6.2729549 -2.1217353 267.44
0.30392346 -6.7976332 -2.1232512 267.44
0.33240506 -7.4346609 -2.1339843 267.44
0.36529303 -8.1702414 -2.1409879 267.44
0.40602386 -9.0812387 -2.1538846 267.44
0.45323503 -10.137177 -2.1568758 267.44
0.51337594 -11.482304 -2.1655388 267.44
0.55502588 -13.297989 -2.1866815 267.60999
0.65478051 -15.688032 -2.2067287 267.60999
0.80526865 -19.293612 -2.2582018 267.60999
1.0199209 -24.436514 -2.2817974 267.60999
1.7792112 -42.628517 -1.9896713 267.60999
0.21109818 -5.0577483 -2.1144302 267.60999
0.22623196 -5.420342 -2.1184161 267.60999
0.24303392 -5.8229041 -2.1212089 267.60999
0.26208857 -6.2794385 -2.123656 267.60999
0.28407162 -6.8061352 -2.1256342 267.60999
0.31026438 -7.4336934 -2.1334331 267.60999
0.3408078 -8.1654902 -2.1394682 267.60999
0.37899637 -9.0804586 -2.1534235 267.60999
0.42307389 -10.136521 -2.15646 267.60999
0.47938702 -11.485741 -2.1659093 267.60999
0.51362687 -13.309527 -2.1883028 267.79001
0.60572106 -15.695949 -2.2075636 267.79001
0.7445755 -19.294062 -2.2579696 267.79001
0.94245541 -24.42169 -2.2801254 267.79001
1.3207698 -34.224888 -2.3950188 267.79001
1.6510593 -42.783623 -1.9966588 267.79001
0.19520777 -5.0583863 -2.1144302 267.79001
0.20913053 -5.4191647 -2.1176884 267.79001
0.22473957 -5.8236389 -2.1212089 267.79001
0.24243294 -6.2821245 -2.1242964 267.79001
0.26261452 -6.8050866 -2.1250384 267.79001
0.28698337 -7.4365525 -2.1339843 267.79001
0.31515351 -8.1665201 -2.1394682 267.79001
0.35016724 -9.0738258 -2.1515791 267.79001
0.3913779 -10.14171 -2.1572917 267.79001
0.44292223 -11.47737 -2.1640577 267.79001
0.4741345 -13.310993 -2.1883028 267.95999
0.55900663 -15.693718 -2.2070069 267.95999
0.68725497 -19.294199 -2.2577372 267.95999
0.87048692 -24.438309 -2.281426 267.95999
1.2195009 -34.236633 -2.3955767 267.95999
1.7661932 -49.584633 -2.3137989 267.95999
0.1802641 -5.0607877 -2.1152012 267.95999
0.19305064 -5.4197612 -2.1176884 267.95999
0.20745951 -5.8242798 -2.1212089 267.95999
0.22365756 -6.2790289 -2.1230159 267.95999
0.2424223 -6.8058357 -2.1250384 267.95999
