# .PCD v0.7 - Point Cloud Data file format
VERSION 0.7
FIELDS x y z intensity
SIZE 4 4 4 4
TYPE F F F F
COUNT 1 1 1 1
WIDTH 1230
HEIGHT 1
VIEWPOINT 0 0 0 1 0 0 0
POINTS 1230
DATA ascii
7.7766433 -1.0169113 -1.8583076 187.45
8.4477463 -1.1046679 -1.8109108 187.45
9.1711864 -1.1992685 -1.7426515 187.45
9.6143017 -1.2862376 -1.5936446 187.62
10.918466 -1.4607136 -1.5481616 187.62
12.293945 -1.6447304 -1.4504899 187.62
13.090025 -1.7512331 -1.2321186 187.62
14.303328 -1.9135534 -1.0090971 187.62
4.4205446 -0.59139723 -1.9856883 187.62
20.391962 -2.7281139 -0.95943224 187.62
4.6644173 -0.62402338 -1.965657 187.62
4.9450617 -0.66156906 -1.9481862 187.62
34.141819 -4.5676217 0 187.62
5.2512021 -0.70252568 -1.9283096 187.62
5.6472182 -0.75550622 -1.9251835 187.62
6.0403819 -0.80810517 -1.9016324 187.62
6.5779452 -0.88002241 -1.9030004 187.62
34.373158 -4.5985713 3.2354262 187.62
7.0821228 -0.94747317 -1.8705152 187.62
7.7581606 -1.0379161 -1.8546187 187.62
8.4366751 -1.1286904 -1.8092475 187.62
9.1812248 -1.2282989 -1.7452437 187.62
9.6375866 -1.3201852 -1.598184 187.8
9.8365679 -1.3474423 -1.3953495 187.8
12.300526 -1.6849624 -1.4518837 187.8
13.07854 -1.7915372 -1.2315613 187.8
14.305153 -1.9595622 -1.0096552 187.8
4.4186649 -0.60528183 -1.9856883 187.8
20.387249 -2.7927058 -0.95961857 187.8
4.6660905 -0.63917488 -1.9671987 187.8
14.585822 -1.9980091 -0.34180215 187.8
4.9503417 -0.67811245 -1.9510961 187.8
34.303654 -4.6990161 0 187.8
5.2508311 -0.7192744 -1.9289936 187.8
12.70787 -1.7407616 0.29779449 187.8
5.6542029 -0.77452946 -1.9283848 187.8
90.074036 -12.338608 4.2397442 187.8
6.0378137 -0.82707757 -1.9016324 187.8
34.633217 -4.7441602 2.4444063 187.8
6.5770531 -0.90094417 -1.9035516 187.8
7.0848618 -0.97050536 -1.8720347 187.8
7.7201557 -1.0575298 -1.8463186 187.8
8.4272728 -1.1543928 -1.8080001 187.8
9.1967926 -1.2598039 -1.7489467 187.8
9.5476303 -1.3367344 -1.5839174 187.97
9.8423338 -1.377995 -1.3967413 187.97
12.2758 -1.7186971 -1.4495608 187.97
13.025836 -1.8237073 -1.2271025 187.97
14.28742 -2.0003378 -1.0088181 187.97
4.4186592 -0.61864293 -1.9865018 187.97
20.309626 -2.8434882 -0.95635778 187.97
4.6696563 -0.65378428 -1.9695113 187.97
14.58775 -2.0423863 -0.34198785 187.97
4.9390831 -0.69150585 -1.9474586 187.97
25.986542 -3.6382961 0 187.97
5.239368 -0.73354781 -1.9255733 187.97
90.148216 -12.621375 2.1133893 187.97
5.6443744 -0.79025155 -1.9258238 187.97
90.104301 -12.615227 4.2429118 187.97
6.0353332 -0.84498847 -1.9016324 187.97
6.5534077 -0.91752249 -1.8974875 187.97
7.0742869 -0.99044919 -1.8700087 187.97
7.6957831 -1.077463 -1.8412462 187.97
8.423811 -1.1793919 -1.8080001 187.97
9.1852283 -1.2859957 -1.7474655 187.97
9.5868416 -1.3695314 -1.5910507 188.13
9.6561089 -1.3794265 -1.3708551 188.13
12.326015 -1.7608367 -1.4560652 188.13
13.071947 -1.8673973 -1.2319329 188.13
14.273878 -2.0390995 -1.0082601 188.13
4.4187231 -0.6312381 -1.9873153 188.13
4.6550241 -0.66499496 -1.9641154 188.13
14.910564 -2.1300535 -0.34969383 188.13
4.9389768 -0.70555913 -1.9481862 188.13
30.098433 -4.2997212 0 188.13
5.2335777 -0.74764442 -1.9242053 188.13
90.15023 -12.87844 2.1142712 188.13
5.6346426 -0.80493867 -1.9232628 188.13
90.122116 -12.874424 4.2454271 188.13
6.0253897 -0.86075896 -1.8992493 188.13
6.5622387 -0.93745077 -1.9007952 188.13
6.9891329 -0.99843484 -1.8482291 188.13
7.7235694 -1.103353 -1.8486241 188.13
8.4204845 -1.202911 -1.8080001 188.13
9.2166233 -1.3166437 -1.754131 188.13
9.7836323 -1.4290216 -1.6244476 188.31
9.6576071 -1.410614 -1.37169 188.31
12.306663 -1.7975415 -1.454439 188.31
13.08178 -1.9107572 -1.2334191 188.31
14.279247 -2.0856621 -1.0090971 188.31
4.4112945 -0.64432454 -1.9848748 188.31
4.6547379 -0.67988253 -1.9648862 188.31
14.715845 -2.1494327 -0.34528378 188.31
4.9367361 -0.7210719 -1.9481862 188.31
25.570675 -3.734916 0 188.31
5.2330627 -0.76435411 -1.9248893 188.31
12.654282 -1.8483156 0.29691249 188.31
5.6152124 -0.82017183 -1.9175007 188.31
90.11879 -13.162973 4.2471972 188.31
6.0264344 -0.88023591 -1.9004409 188.31
6.5706754 -0.95972914 -1.9041028 188.31
6.9840474 -1.0201073 -1.8477225 188.31
7.7239165 -1.1281743 -1.8495464 188.31
8.428278 -1.2310551 -1.810495 188.31
9.2416134 -1.3498529 -1.7596855 188.31
9.5748911 -1.4241439 -1.5904022 188.46001
12.309773 -1.8309231 -1.4553683 188.46001
13.053097 -1.941483 -1.2311897 188.46001
14.283605 -2.1245055 -1.0097947 188.46001
4.4132066 -0.65640867 -1.9865018 188.46001
4.6328626 -0.6890797 -1.956407 188.46001
14.609304 -2.1729493 -0.34291628 188.46001
4.9219322 -0.73207515 -1.9430938 188.46001
25.810066 -3.8389208 0 188.46001
5.2366209 -0.77888107 -1.9269415 188.46001
90.169487 -13.411571 2.1164994 188.46001
5.6149201 -0.83514833 -1.918141 188.46001
90.159111 -13.410027 4.2507377 188.46001
6.0222206 -0.89572912 -1.8998451 188.46001
6.5700421 -0.97721064 -1.9046541 188.46001
34.695984 -5.1605892 3.2725828 188.46001
6.8799243 -1.0233017 -1.8208779 188.46001
7.7305613 -1.1498232 -1.8518519 188.46001
7.1614661 -1.0651774 -1.5389624 188.46001
9.2322159 -1.3731753 -1.7585746 188.46001
9.8195944 -1.495594 -1.6319051 188.66
10.870575 -1.6556658 -1.5453781 188.66
12.330801 -1.8780686 -1.4586204 188.66
13.107268 -1.99633 -1.236949 188.66
14.262295 -2.1722488 -1.0088181 188.66
4.4090824 -0.67153454 -1.9856883 188.66
4.6450248 -0.70747024 -1.9625736 188.66
14.603607 -2.2242332 -0.34296271 188.66
4.9138217 -0.74840993 -1.9409114 188.66
25.729284 -3.9187527 0 188.66
5.237586 -0.79772151 -1.9283096 188.66
30.201477 -4.5998993 0.70927548 188.66
5.626956 -0.85702533 -1.9232628 188.66
30.151144 -4.5922332 1.4222852 188.66
6.0115075 -0.91559529 -1.8974621 188.66
30.15575 -4.5929351 2.1330135 188.66
6.5627894 -0.99955946 -1.9035516 188.66
30.181366 -4.5968361 2.8482525 188.66
6.8839612 -1.0484762 -1.822904 188.66
30.156359 -4.5930276 3.5672202 188.66
7.703413 -1.1732845 -1.8463186 188.66
8.4070635 -1.2804554 -1.8075843 188.66
9.2293091 -1.4056894 -1.7589449 188.66
10.146914 -1.5744524 -1.687026 188.82001
10.881566 -1.688445 -1.5476049 188.82001
11.365614 -1.7635527 -1.3450251 188.82001
13.026866 -2.0213218 -1.2298893 188.82001
14.246316 -2.2105386 -1.0081205 188.82001
4.4017735 -0.68300396 -1.9832479 188.82001
4.6357365 -0.71930695 -1.9594903 188.82001
14.826533 -2.3005683 -0.3483476 188.82001
4.9006667 -0.76041502 -1.9365466 188.82001
25.577919 -3.9688139 0 188.82001
5.2297664 -0.81147999 -1.9262575 188.82001
90.227676 -14.000235 2.1198883 188.82001
5.6339025 -0.87418801 -1.9264641 188.82001
90.177704 -13.99248 4.2556753 188.82001
6.0315671 -0.93589187 -1.9046111 188.82001
6.548574 -1.0161136 -1.9002439 188.82001
6.7376122 -1.0454459 -1.7849162 188.82001
25.449947 -3.948957 3.0117877 188.82001
7.7539535 -1.2031471 -1.8592299 188.82001
8.4150534 -1.3057271 -1.8100792 188.82001
9.2525387 -1.435676 -1.7641292 188.82001
10.153614 -1.6081744 -1.6889715 189
10.885988 -1.7241712 -1.5489966 189
13.046021 -2.0662866 -1.2323045 189
4.4122381 -0.69882989 -1.9889421 189
4.6316309 -0.73357826 -1.9587194 189
4.9019337 -0.77639002 -1.9380015 189
25.891262 -4.1007729 0 189
5.2309036 -0.82849377 -1.9276255 189
12.676527 -2.0077646 0.29798019 189
5.6329994 -0.89217949 -1.9271042 189
90.194473 -14.285401 4.2585635 189
6.0380254 -0.95632929 -1.9075899 189
25.459696 -4.0324197 1.8025073 189
6.5225635 -1.0330726 -1.8936286 189
6.8508644 -1.0850704 -1.8158129 189
25.586527 -4.0525079 3.0294425 189
7.7597466 -1.2290231 -1.8615354 189
25.670589 -4.0658216 3.6527371 189
8.3954525 -1.3297091 -1.8067526 189
9.2654533 -1.4675037 -1.7674619 189
10.142953 -1.6373502 -1.6879988 189.17
10.828033 -1.747941 -1.5414813 189.17
11.93903 -1.9272863 -1.4142509 189.17
13.059491 -2.1081593 -1.2341622 189.17
4.4029303 -0.71075344 -1.9856883 189.17
4.6257901 -0.74672914 -1.9571778 189.17
14.03251 -2.2652311 -0.33001107 189.17
4.9106436 -0.79271227 -1.9423664 189.17
12.713417 -2.0522935 0 189.17
5.2339888 -0.84490901 -1.9296776 189.17
12.674461 -2.046005 0.29807302 189.17
5.641551 -0.91070074 -1.9309456 189.17
25.740438 -4.1552114 1.2159206 189.17
6.0427008 -0.97545725 -1.9099729 189.17
25.494892 -4.1155734 1.8058556 189.17
6.536551 -1.0551783 -1.8985901 189.17
25.696312 -4.148088 2.428381 189.17
6.775032 -1.0936756 -1.7965658 189.17
25.454765 -4.1090956 3.0152721 189.17
7.4813275 -1.2076911 -1.7955955 189.17
8.4049892 -1.3567953 -1.8096634 189.17
9.2435961 -1.4921694 -1.7641292 189.17
10.132499 -1.6647084 -1.687026 189.33
10.909101 -1.7922995 -1.5537285 189.33
11.569007 -1.9007181 -1.3710428 189.33
13.106608 -2.1533365 -1.2391784 189.33
14.218201 -2.3359644 -1.0075625 189.33
4.4099431 -0.724527 -1.9897556 189.33
4.6382556 -0.7620374 -1.9633445 189.33
14.408894 -2.3672943 -0.33901685 189.33
4.9065723 -0.80612022 -1.9416388 189.33
25.41922 -4.1762247 0 189.33
5.2223363 -0.85799831 -1.9262575 189.33
12.660807 -2.0800941 0.29788733 189.33
5.6389856 -0.92645133 -1.9309456 189.33
25.695221 -4.2215695 1.2143368 189.33
6.0399532 -0.99232787 -1.9099729 189.33
25.723484 -4.2262135 1.8228762 189.33
6.531682 -1.0731159 -1.8980389 189.33
25.668909 -4.217247 2.4268947 189.33
6.9781456 -1.1464672 -1.8512681 189.33
7.3185353 -1.2023911 -1.7573227 189.33
7.3027611 -1.1997995 -1.5730598 189.33
9.2859392 -1.5256237 -1.7730165 189.33
10.14114 -1.6970448 -1.6892958 189.5
10.925222 -1.8282552 -1.5567904 189.5
11.355639 -1.9002824 -1.3464189 189.5
11.854959 -1.9838398 -1.1213914 189.5
14.228917 -2.381104 -1.0088181 189.5
4.4023676 -0.73670369 -1.9873153 189.5
14.106307 -2.3605862 -0.66698152 189.5
4.626873 -0.77427304 -1.9594903 189.5
13.914713 -2.3285244 -0.32755074 189.5
4.9188585 -0.82313466 -1.9474586 189.5
12.719139 -2.128454 0 189.5
5.2197676 -0.8734895 -1.9262575 189.5
12.680216 -2.1219404 0.29849082 189.5
5.628737 -0.94192755 -1.9283848 189.5
25.696375 -4.3000984 1.2149889 189.5
6.0275669 -1.0086688 -1.9069941 189.5
6.2971377 -1.0537795 -1.8307834 189.5
25.636642 -4.2901025 2.4250369 189.5
6.9747133 -1.1671667 -1.8512681 189.5
25.558025 -4.2769465 3.0303717 189.5
7.0231824 -1.1752777 -1.6872326 189.5
25.516928 -4.2700691 3.6360364 189.5
8.364234 -1.3996928 -1.8025943 189.5
9.2968788 -1.555764 -1.7759789 189.5
10.135758 -1.7288957 -1.6892958 189.67999
10.950663 -1.867897 -1.5612439 189.67999
13.120691 -2.2380474 -1.2417793 189.67999
14.195799 -2.4214325 -1.0070045 189.67999
4.4018326 -0.75083768 -1.9881287 189.67999
14.022016 -2.3917897 -0.66334802 189.67999
4.6316948 -0.79004616 -1.9625736 189.67999
13.816663 -2.3567619 -0.32541534 189.67999
4.914412 -0.83827037 -1.9467312 189.67999
25.491812 -4.3482375 0 189.67999
5.2318187 -0.89241165 -1.9317298 189.67999
25.65642 -4.3763151 0.6042698 189.67999
5.618279 -0.9583317 -1.9258238 189.67999
25.61381 -4.3690472 1.2117281 189.67999
6.0206046 -1.0269579 -1.9058026 189.67999
25.579185 -4.3631411 1.8145053 189.67999
6.0246849 -1.0276539 -1.7525023 189.67999
25.617149 -4.369617 2.4244795 189.67999
6.2081108 -1.0589416 -1.648667 189.67999
25.501383 -4.3498702 3.0252612 189.67999
9.2861338 -1.5839719 -1.774868 189.67999
10.132221 -1.7610675 -1.68962 189.86
10.97401 -1.9073775 -1.5654191 189.86
12.273108 -2.133172 -1.4567621 189.86
13.10771 -2.2782331 -1.241222 189.86
14.201881 -2.4684095 -1.0079811 189.86
4.3994522 -0.76466274 -1.9881287 189.86
14.118752 -2.4539611 -0.66828585 189.86
4.6346445 -0.80554122 -1.9648862 189.86
13.887988 -2.4138522 -0.32727221 189.86
4.9117541 -0.85370529 -1.9467312 189.86
25.525316 -4.4365201 0 189.86
5.2197309 -0.90723431 -1.9283096 189.86
12.704062 -2.2080755 0.29937282 189.86
5.6171074 -0.97630173 -1.9264641 189.86
25.531067 -4.43752 1.2084672 189.86
5.9947762 -1.0419439 -1.8986536 189.86
6.0668855 -1.0544771 -1.7657329 189.86
6.1971288 -1.0771145 -1.6466409 189.86
6.9696426 -1.2113841 -1.6761658 189.86
25.079826 -4.3590903 3.5775838 189.86
9.2694931 -1.6111178 -1.7726462 189.86
10.135037 -1.7907286 -1.690917 190.02
10.978392 -1.9397383 -1.5668107 190.02
11.431822 -2.0198534 -1.3575693 190.02
13.099336 -2.3144813 -1.2410363 190.02
14.200827 -2.5091004 -1.0083996 190.02
4.3955007 -0.77662742 -1.9873153 190.02
14.159061 -2.5017211 -0.67052186 190.02
4.6378288 -0.8194437 -1.9671987 190.02
13.845752 -2.4463632 -0.32643661 190.02
4.9111857 -0.86774224 -1.9474586 190.02
25.526613 -4.5102186 0 190.02
5.2171774 -0.92180699 -1.9283096 190.02
12.699815 -2.2438912 0.29941925 190.02
5.6180906 -0.99264318 -1.9277445 190.02
5.9354405 -1.0487148 -1.8807812 190.02
25.741455 -4.5481782 1.8278986 190.02
6.2021208 -1.0958337 -1.8059759 190.02
6.178854 -1.0917227 -1.6425889 190.02
25.893742 -4.5750852 3.0749736 190.02
7.1597924 -1.2650416 -1.7227387 190.02
7.1856809 -1.2696158 -1.5510212 190.02
9.2843122 -1.6404165 -1.7763492 190.02
10.133246 -1.8232589 -1.6915655 190.2
10.997583 -1.9787776 -1.5704293 190.2
11.401958 -2.0515361 -1.3547817 190.2
13.062602 -2.350333 -1.2382495 190.2
14.194838 -2.5540545 -1.0085391 190.2
4.3966355 -0.79107958 -1.9889421 190.2
14.164896 -2.5486672 -0.67117399 190.2
4.6370478 -0.83433664 -1.9679695 190.2
13.857677 -2.4933896 -0.32690084 190.2
4.8937669 -0.88052762 -1.9416388 190.2
26.057564 -4.6884956 0 190.2
5.2087064 -0.93719423 -1.9262575 190.2
12.690735 -2.2834237 0.29937282 190.2
5.6149445 -1.010288 -1.9277445 190.2
5.9339957 -1.0676943 -1.8813769 190.2
6.2705488 -1.1282499 -1.8269244 190.2
25.781487 -4.6388216 3.0633585 190.2
7.0274534 -1.2644385 -1.6918439 190.2
8.4023457 -1.5118207 -1.8146533 190.2
9.3197346 -1.6768849 -1.7841256 190.2
10.974131 -2.0081909 -1.5679241 190.37
13.045777 -2.3872879 -1.2373205 190.37
14.189159 -2.5965192 -1.0086786 190.37
4.3978634 -0.80477887 -1.9905691 190.37
14.047221 -2.5705454 -0.66595668 190.37
4.6381826 -0.84875572 -1.9695113 190.37
4.8819699 -0.89336711 -1.9380015 190.37
12.773885 -2.3375335 0 190.37
5.1911135 -0.94993824 -1.9207851 190.37
12.695705 -2.3232272 0.29965135 190.37
5.6119223 -1.0269434 -1.9277445 190.37
5.9439478 -1.0877018 -1.8855472 190.37
6.284194 -1.1499645 -1.8318858 190.37
6.1606507 -1.127357 -1.6395499 190.37
25.324467 -4.6342044 3.6182222 190.37
7.0430875 -1.2888368 -1.5219135 190.37
9.2973185 -1.7013457 -1.7807928 190.37
9.5964432 -1.7855262 -1.6036961 190.53999
10.989542 -2.044728 -1.5709859 190.53999
11.39349 -2.1198869 -1.3552463 190.53999
13.032763 -2.4248922 -1.2367632 190.53999
14.201008 -2.6422572 -1.0100738 190.53999
4.3846784 -0.81581879 -1.9856883 190.53999
13.913829 -2.5888243 -0.65999401 190.53999
4.635644 -0.86251372 -1.9695113 190.53999
4.8628135 -0.90478116 -1.9314542 190.53999
12.821948 -2.3856678 0 190.53999
5.2030535 -0.9680866 -1.9262575 190.53999
12.708413 -2.3645432 0.30011559 190.53999
5.616302 -1.0449761 -1.9303055 190.53999
6.0026355 -1.1168579 -1.9052069 190.53999
6.320446 -1.1759901 -1.8434626 190.53999
7.1461029 -1.3296129 -1.7222776 190.53999
8.3512192 -1.5538384 -1.6004547 190.53999
9.5991764 -1.8137832 -1.6049931 190.7
10.95849 -2.0706282 -1.5673674 190.7
11.420709 -2.1579652 -1.3591955 190.7
13.053335 -2.4664533 -1.2393641 190.7
14.195535 -2.6822741 -1.0102133 190.7
4.3752022 -0.82670301 -1.9824344 190.7
14.24616 -2.6918399 -0.67611188 190.7
4.6295905 -0.87477022 -1.9679695 190.7
4.8913884 -0.92423743 -1.9438213 190.7
15.075246 -2.8484972 0 190.7
5.2095633 -0.98435718 -1.9296776 190.7
12.70962 -2.4015076 0.30030125 190.7
5.602191 -1.058545 -1.9264641 190.7
5.9732289 -1.1286533 -1.8968663 190.7
6.4531522 -1.2193358 -1.8831544 190.7
6.2358055 -1.1782677 -1.6613295 190.7
6.9453974 -1.3123465 -1.6747825 190.7
7.1624179 -1.3533529 -1.5493579 190.7
9.6128111 -1.847656 -1.6082355 190.88
10.969436 -2.1084094 -1.5698726 190.88
13.0377 -2.5059457 -1.2386211 190.88
14.20859 -2.7309997 -1.0117478 190.88
4.3833485 -0.8425132 -1.9873153 190.88
13.83544 -2.6592774 -0.65701264 190.88
4.6159458 -0.88722014 -1.9633445 190.88
4.893949 -0.94065452 -1.9460037 190.88
26.178814 -5.0317683 0 190.88
5.2138276 -1.0021375 -1.9324138 190.88
12.705939 -2.442179 0.30039409 190.88
5.5988379 -1.0761395 -1.9264641 190.88
5.9434052 -1.142368 -1.8885258 190.88
6.4492898 -1.2396029 -1.8831544 190.88
6.1389718 -1.1799574 -1.6365108 190.88
6.9718184 -1.340037 -1.6821604 190.88
7.1562099 -1.3754784 -1.5489421 190.88
8.3534327 -1.6055937 -1.6026765 190.88
9.6786242 -1.8918545 -1.6202325 191.06
10.851964 -2.1212039 -1.5540068 191.06
11.389378 -2.2262509 -1.3571048 191.06
13.03758 -2.5484204 -1.2393641 191.06
4.3770938 -0.85557872 -1.9856883 191.06
13.844664 -2.7061789 -0.65785116 191.06
4.6058908 -0.90030104 -1.9602611 191.06
14.674265 -2.8683391 -0.34714064 191.06
4.8836565 -0.95459509 -1.9430938 191.06
14.167878 -2.7693567 0 191.06
5.2088089 -1.0181518 -1.9317298 191.06
12.71979 -2.4863029 0.30090475 191.06
5.5991483 -1.0944504 -1.9277445 191.06
5.977262 -1.1683593 -1.9004409 191.06
6.4566846 -1.2620707 -1.8864621 191.06
6.911871 -1.3510447 -1.8436706 191.06
6.7574773 -1.3208659 -1.6314373 191.06
7.603044 -1.4861465 -1.6466606 191.06
8.350276 -1.6322058 -1.6030469 191.06
10.096899 -2.0047343 -1.6912413 191.23
10.841737 -2.1526215 -1.5534501 191.23
12.288742 -2.4399238 -1.465125 191.23
13.04168 -2.5894194 -1.2404789 191.23
4.3817043 -0.86998528 -1.9889421 191.23
14.020774 -2.7838178 -0.66660881 191.23
4.6050096 -0.91432238 -1.9610319 191.23
4.8899393 -0.97089505 -1.9467312 191.23
5.196548 -1.0317721 -1.9283096 191.23
12.749619 -2.5314307 0.30178675 191.23
5.594018 -1.1106895 -1.9271042 191.23
5.8745184 -1.1663828 -1.8688662 191.23
6.4283972 -1.2763551 -1.8792955 191.23
6.9021382 -1.3704163 -1.842151 191.23
9.315074 -1.8495034 -1.7893099 191.23
9.8374729 -1.9835825 -1.6487657 191.39999
10.936258 -2.2051365 -1.5679241 191.39999
12.275606 -2.4751964 -1.4644279 191.39999
12.385855 -2.4974263 -1.1787987 191.39999
4.3755217 -0.88225996 -1.9873153 191.39999
13.945866 -2.8119798 -0.66344118 191.39999
4.6022763 -0.92798167 -1.9610319 191.39999
4.8888631 -0.98576772 -1.9474586 191.39999
5.1953063 -1.0475575 -1.9289936 191.39999
12.759692 -2.5728052 0.30220455 191.39999
5.5776963 -1.1246608 -1.9226227 191.39999
5.8410873 -1.1777698 -1.8593341 191.39999
6.3360057 -1.2775629 -1.8533856 191.39999
6.8468328 -1.3805637 -1.8284755 191.39999
7.1253414 -1.4367208 -1.7222776 191.39999
8.407196 -1.695188 -1.8229697 191.39999
9.2902794 -1.8732488 -1.7856069 191.39999
10.114187 -2.0687871 -1.6961049 191.56
10.955282 -2.2408271 -1.5715426 191.56
12.264754 -2.5086706 -1.4639634 191.56
12.322254 -2.5204318 -1.1734109 191.56
4.3802013 -0.89593983 -1.9905691 191.56
13.71287 -2.8048725 -0.65272695 191.56
4.6087074 -0.94267917 -1.9648862 191.56
4.876965 -0.99754947 -1.9438213 191.56
5.1978846 -1.0631913 -1.9310458 191.56
12.781841 -2.6144371 0.30290088 191.56
5.5838156 -1.1421309 -1.9258238 191.56
5.8489981 -1.1963722 -1.8629086 191.56
6.3154616 -1.291784 -1.8484241 191.56
6.9055042 -1.4124731 -1.84519 191.56
7.4206443 -1.5178415 -1.7946733 191.56
7.2294626 -1.4787365 -1.5684857 191.56
9.2907887 -1.9003664 -1.7867178 191.56
9.7594776 -2.0299745 -1.6377414 191.75
10.938096 -2.2751272 -1.570151 191.75
12.281651 -2.5545871 -1.4669833 191.75
12.311879 -2.5608745 -1.1732252 191.75
14.214318 -2.9565823 -1.0152357 191.75
4.3915167 -0.91343677 -1.9970769 191.75
13.971459 -2.9060678 -0.66549081 191.75
4.6163969 -0.96021187 -1.9695113 191.75
4.9028139 -1.0197867 -1.9554609 191.75
5.1998501 -1.0815704 -1.9330978 191.75
12.73395 -2.6486654 0.30197245 191.75
5.5985479 -1.1644996 -1.9322262 191.75
5.9907966 -1.2460876 -1.9093771 191.75
6.4485469 -1.3412997 -1.8886671 191.75
6.9424562 -1.4440329 -1.8563331 191.75
7.0973787 -1.476257 -1.7176665 191.75
7.6573772 -1.5927367 -1.6624619 191.75
9.2594204 -1.9259622 -1.7819037 191.75
9.4895658 -1.9997652 -1.5933204 191.89999
10.232494 -2.1563249 -1.4696679 191.89999
12.169957 -2.5646122 -1.454439 191.89999
13.033893 -2.7466719 -1.2427083 191.89999
14.269001 -3.0069501 -1.0197002 191.89999
4.3855343 -0.92417705 -1.99545 191.89999
13.868014 -2.9224489 -0.66092569 191.89999
4.6210904 -0.97381645 -1.9725946 191.89999
13.64261 -2.8749487 -0.32369775 191.89999
4.8964815 -1.0318505 -1.954006 191.89999
5.1896448 -1.0936297 -1.9303617 191.89999
12.781754 -2.693538 0.30327225 191.89999
5.5973339 -1.1795433 -1.9328663 191.89999
5.9837775 -1.2609797 -1.9081856 191.89999
6.4657063 -1.3625381 -1.8947312 191.89999
6.9708366 -1.4689857 -1.8649436 191.89999
7.0039878 -1.4759718 -1.6959939 191.89999
8.3920822 -1.7684892 -1.8229697 191.89999
9.2524233 -1.9497914 -1.7815335 191.89999
9.4693737 -2.0283291 -1.5910507 192.09
10.926339 -2.3404095 -1.5704293 192.09
12.294518 -2.633472 -1.1730393 192.09
13.349843 -2.8595214 -0.95468712 192.09
4.3752995 -0.93718421 -1.9921961 192.09
13.729315 -2.9408038 -0.65477663 192.09
4.6142263 -0.98836213 -1.971053 192.09
13.719027 -2.9386001 -0.32574028 192.09
4.8984976 -1.0492527 -1.9561884 192.09
5.1859899 -1.1108332 -1.9303617 192.09
12.804033 -2.7426095 0.30401498 192.09
5.5952444 -1.1984951 -1.9335066 192.09
5.9870305 -1.2824153 -1.9105686 192.09
61.671085 -13.209877 4.4102831 192.09
6.4611526 -1.3839716 -1.8947312 192.09
61.710148 -13.218245 5.8878622 192.09
6.9999809 -1.499388 -1.8740608 192.09
7.000958 -1.4995973 -1.696455 192.09
8.3842592 -1.7958989 -1.8225539 192.09
9.2632027 -1.9841677 -1.7848662 192.09
9.4945297 -2.0614645 -1.5962386 192.25
10.116553 -2.1965189 -1.4549156 192.25
12.177359 -2.6439638 -1.4572266 192.25
4.376236 -0.95017403 -1.9938231 192.25
4.6078415 -1.0004605 -1.9695113 192.25
4.8919072 -1.0621372 -1.9547335 192.25
14.453248 -3.1381078 0 192.25
5.1773577 -1.1241145 -1.9283096 192.25
12.792417 -2.7775059 0.30392215 192.25
5.5863209 -1.2129092 -1.9315859 192.25
5.9834261 -1.2991291 -1.9105686 192.25
6.4666562 -1.4040487 -1.8974875 192.25
7.0108924 -1.5222139 -1.8781128 192.25
7.6718841 -1.6657293 -1.8601521 192.25
8.3925934 -1.8222107 -1.8254646 192.25
9.2499437 -2.0083597 -1.783385 192.25
10.025332 -2.2115507 -1.6867019 192.44
10.967926 -2.4194834 -1.5785013 192.44
12.178223 -2.6864703 -1.4583882 192.44
13.046319 -2.877969 -1.246424 192.44
4.3766298 -0.96546811 -1.99545 192.44
4.5900812 -1.0125548 -1.9633445 192.44
4.8774428 -1.0759456 -1.9503686 192.44
5.1846132 -1.1437062 -1.9324138 192.44
12.812424 -2.8263726 0.30461848 192.44
5.5748672 -1.2297947 -1.9290249 192.44
5.9697633 -1.3169074 -1.9075899 192.44
6.4507003 -1.4230003 -1.8941799 192.44
6.9982486 -1.5437874 -1.8760867 192.44
7.6815214 -1.6945149 -1.8638411 192.44
8.3654909 -1.8453959 -1.8208905 192.44
9.241313 -2.038599 -1.7830147 192.44
10.075494 -2.2539861 -1.4510187 192.61
11.88911 -2.6597097 -1.4247044 192.61
12.998857 -2.9079709 -1.2427083 192.61
4.3701797 -0.97765177 -1.9938231 192.61
13.830736 -3.0940704 -0.66092569 192.61
4.5942607 -1.0277809 -1.9664279 192.61
14.353259 -3.210964 -0.34147722 192.61
4.8687749 -1.0891924 -1.9481862 192.61
5.1665244 -1.1558019 -1.9269415 192.61
12.80203 -2.8639388 0.30457205 192.61
5.5822878 -1.2488122 -1.9328663 192.61
59.432781 -13.295692 2.8400984 192.61
5.9695559 -1.3354478 -1.9087814 192.61
59.426426 -13.294271 4.258214 192.61
6.4820967 -1.4501082 -1.9046541 192.61
6.9879727 -1.5632776 -1.8745673 192.61
8.3847971 -1.8757608 -1.8262963 192.61
8.4430857 -1.8888005 -1.630079 192.61
9.4122858 -2.1315098 -1.5855386 192.75999
9.9246864 -2.2475481 -1.4301428 192.75999
11.814296 -2.6754699 -1.4165739 192.75999
12.993141 -2.9424314 -1.2428941 192.75999
4.3640413 -0.98828244 -1.9921961 192.75999
4.6041536 -1.0426583 -1.9718238 192.75999
4.8677235 -1.1023465 -1.9489136 192.75999
5.1653137 -1.1697389 -1.9276255 192.75999
12.778888 -2.8939116 0.30420068 192.75999
5.5771518 -1.2630038 -1.9322262 192.75999
5.958591 -1.3493848 -1.9063984 192.75999
58.772633 -13.309672 4.2138491 192.75999
6.4932785 -1.4704703 -1.9090643 192.75999
7.0215964 -1.5901134 -1.8846973 192.75999
58.755684 -13.305834 7.0450044 192.75999
6.9867401 -1.5822197 -1.6973773 192.75999
8.3665018 -1.8946811 -1.8233855 192.75999
9.3897791 -2.1591723 -1.5829448 192.95
9.9519215 -2.2884364 -1.435153 192.95
11.758897 -2.7039487 -1.4109987 192.95
11.756787 -2.7034638 -1.1254786 192.95
14.310666 -3.2907262 -1.0268153 192.95
4.3536177 -1.0011109 -1.9889421 192.95
4.6006708 -1.0579206 -1.9718238 192.95
4.8658566 -1.1188998 -1.9496411 192.95
44.43631 -10.218094 0 192.95
5.1650696 -1.1877036 -1.9289936 192.95
12.777016 -2.9380643 0.30438635 192.95
5.5710859 -1.2810668 -1.9315859 192.95
5.9578047 -1.3699924 -1.9075899 192.95
58.037918 -13.345773 4.1643219 192.95
6.4752512 -1.4889789 -1.9052054 192.95
58.133797 -13.367821 5.565156 192.95
7.0275984 -1.6159906 -1.8877363 192.95
58.097546 -13.359484 6.971365 192.95
7.6907902 -1.768491 -1.8698356 192.95
8.3906775 -1.9294295 -1.8300387 192.95
8.4393902 -1.940631 -1.6315602 192.95
9.941124 -2.315201 -1.6769747 193.11
12.947772 -3.0154233 -1.2402931 193.11
4.3472462 -1.0124357 -1.9873153 193.11
4.6030908 -1.0720197 -1.9741364 193.11
4.853641 -1.1303707 -1.9460037 193.11
44.397865 -10.339875 0 193.11
5.1434288 -1.1978598 -1.9221532 193.11
12.790182 -2.9787219 0.30489701 193.11
5.5748682 -1.2983383 -1.9341469 193.11
5.9539557 -1.3866245 -1.9075899 193.11
57.417484 -13.372032 4.122468 193.11
6.4785576 -1.5087996 -1.9074105 193.11
57.421314 -13.372923 5.5005031 193.11
7.0136366 -1.6334149 -1.8852038 193.11
7.6971941 -1.7926093 -1.8726023 193.11
8.3509607 -1.9448661 -1.8225539 193.11
9.2244997 -2.1483057 -1.7844959 193.11
10.014057 -2.3672228 -1.6905928 193.3
10.884118 -2.5728965 -1.571821 193.3
11.865884 -2.804976 -1.425866 193.3
12.840804 -3.0354376 -1.2310039 193.3
13.041838 -3.0829599 -0.93710846 193.3
4.3545332 -1.029368 -1.9921961 193.3
12.968113 -3.065532 -0.62142289 193.3
4.5941224 -1.0860045 -1.9718238 193.3
4.8571181 -1.148174 -1.9489136 193.3
12.898513 -3.0490792 0 193.3
5.1394281 -1.2149093 -1.9221532 193.3
12.817204 -3.0298588 0.30577901 193.3
5.5650005 -1.3155104 -1.9322262 193.3
5.9493251 -1.4063607 -1.9075899 193.3
56.792282 -13.425127 4.0807538 193.3
6.4828734 -1.5324863 -1.9101669 193.3
56.756508 -13.416671 5.4410524 193.3
7.0213618 -1.6597795 -1.8887494 193.3
56.771816 -13.420288 6.8219953 193.3
7.6438594 -1.8069317 -1.8610743 193.3
8.3768311 -1.9801989 -1.8296229 193.3
8.5937834 -2.0314844 -1.6637768 193.3
9.9963083 -2.3906772 -1.6886473 193.45
10.881197 -2.6023035 -1.5723777 193.45
12.295127 -2.9404533 -1.4783661 193.45
12.82894 -3.0681179 -1.2306323 193.45
4.3589315 -1.0424645 -1.99545 193.45
4.5948534 -1.0988867 -1.9733655 193.45
12.912293 -3.0880523 -0.30823934 193.45
4.8341646 -1.1561193 -1.9409114 193.45
12.855474 -3.0744634 0 193.45
5.158164 -1.2336059 -1.9303617 193.45
12.77617 -3.0554976 0.30498984 193.45
5.5615373 -1.330075 -1.9322262 193.45
56.009922 -13.395109 2.6856277 193.45
5.9474792 -1.4223753 -1.9081856 193.45
56.106903 -13.418303 4.0340171 193.45
6.4694901 -1.5472174 -1.9074105 193.45
7.0188742 -1.6786058 -1.8892558 193.45
56.131775 -13.424251 6.7492847 193.45
7.6542444 -1.8305584 -1.8647633 193.45
7.798923 -1.8651592 -1.70446 193.45
8.5807896 -2.0521472 -1.6622955 193.45
9.9902439 -2.4242783 -1.6889715 193.64
10.884056 -2.6411748 -1.5740478 193.64
12.310405 -2.987299 -1.4813859 193.64
12.839982 -3.115809 -1.232676 193.64
13.067907 -3.1711183 -0.94031727 193.64
4.3465729 -1.0547593 -1.9913826 193.64
13.613681 -3.3035581 -0.65328598 193.64
4.5768366 -1.1106361 -1.9671987 193.64
4.8339252 -1.1730224 -1.9423664 193.64
53.378845 -12.953155 0 193.64
5.1558714 -1.2511473 -1.9310458 193.64
5.5626202 -1.3498509 -1.9341469 193.64
55.417698 -13.447912 2.6593547 193.64
5.9501514 -1.443891 -1.9105686 193.64
54.799904 -13.297996 3.9431939 193.64
6.4587188 -1.5673023 -1.9057567 193.64
55.48769 -13.464896 5.3269811 193.64
7.0264306 -1.7050658 -1.8928013 193.64
55.4557 -13.457133 6.6733222 193.64
7.6689353 -1.860979 -1.8698356 193.64
7.7565737 -1.8822457 -1.6965594 193.64
8.5471973 -2.0741019 -1.6571113 193.64
9.9887562 -2.4553225 -1.6899443 193.81
10.891558 -2.6772389 -1.5762745 193.81
12.340068 -3.0332952 -1.486032 193.81
12.842283 -3.1567442 -1.2337906 193.81
4.3363271 -1.0659065 -1.9881287 193.81
12.981054 -3.190855 -0.62337941 193.81
4.5699368 -1.1233299 -1.965657 193.81
12.943119 -3.1815305 -0.30944631 193.81
4.8467059 -1.191362 -1.9489136 193.81
12.833961 -3.1546981 0 193.81
5.1521363 -1.2664396 -1.9310458 193.81
12.818852 -3.1509845 0.30647534 193.81
5.5622706 -1.3672541 -1.9354273 193.81
54.750908 -13.458245 2.6292617 193.81
5.9384251 -1.4597161 -1.9081856 193.81
54.818329 -13.474818 3.9473794 193.81
6.4559073 -1.5869178 -1.9063079 193.81
54.830616 -13.477839 5.2677159 193.81
7.0138254 -1.7240587 -1.8907753 193.81
54.852245 -13.483155 6.6054902 193.81
7.6255832 -1.8744341 -1.8606132 193.81
7.7623534 -1.9080534 -1.6990544 193.81
8.8024845 -2.1637266 -1.7078429 193.81
9.9450407 -2.4758902 -1.6837837 193.98
10.914316 -2.7171984 -1.5807281 193.98
12.373421 -3.0804532 -1.4911426 193.98
12.84832 -3.1986825 -1.2352769 193.98
4.349102 -1.0827405 -1.99545 193.98
4.5468845 -1.1319801 -1.9571778 193.98
4.8539963 -1.2084377 -1.9532785 193.98
12.845892 -3.1980782 0 193.98
5.1574745 -1.2839909 -1.9344659 193.98
12.795865 -3.1856236 0.30615038 193.98
5.5581894 -1.3837516 -1.9354273 193.98
54.175667 -13.487427 2.6035478 193.98
5.9340677 -1.4773294 -1.9081856 193.98
54.199234 -13.493293 3.9056649 193.98
6.4604983 -1.6083879 -1.9090643 193.98
54.260914 -13.508649 5.2168112 193.98
7.0105567 -1.745329 -1.8912818 193.98
54.179737 -13.48844 6.5292954 193.98
7.623765 -1.8979917 -1.8615354 193.98
8.3451462 -2.077585 -1.8279595 193.98
9.2175179 -2.2947681 -1.7896801 193.98
9.9429541 -2.5085695 -1.6847564 194.16
10.919168 -2.7548647 -1.5826765 194.16
12.3945 -3.1270852 -1.4948595 194.16
12.853654 -3.242928 -1.2367632 194.16
14.363729 -3.623914 -1.0358837 194.16
4.3509936 -1.0977392 -1.9978904 194.16
4.5450954 -1.1467103 -1.9579486 194.16
4.8483696 -1.2232252 -1.952551 194.16
12.876506 -3.2486935 0 194.16
5.1479487 -1.2988079 -1.9324138 194.16
54.157871 -13.663825 1.2967871 194.16
5.5519776 -1.4007429 -1.934787 194.16
54.148525 -13.661468 2.6042931 194.16
5.9182901 -1.4931622 -1.9046111 194.16
54.129494 -13.656665 3.9037118 194.16
6.449821 -1.6272653 -1.9074105 194.16
54.125526 -13.655665 5.2078934 194.16
6.9975348 -1.7654514 -1.8892558 194.16
54.083164 -13.644977 6.5227909 194.16
7.6026688 -1.9181244 -1.8578465 194.16
7.6841631 -1.9386852 -1.6845006 194.16
9.2102633 -2.3237145 -1.7896801 194.16
9.9382648 -2.5350792 -1.6850806 194.31
10.940705 -2.7907844 -1.5868517 194.31
12.426692 -3.1698341 -1.4997379 194.31
13.0265 -3.3228345 -1.2542269 194.31
4.3374825 -1.1064167 -1.9930096 194.31
13.008854 -3.3183334 -0.62608123 194.31
4.5724773 -1.1663599 -1.971053 194.31
4.868618 -1.2419002 -1.9620082 194.31
41.803417 -10.663327 0 194.31
5.1390676 -1.3108871 -1.9303617 194.31
52.928463 -13.501134 1.2681913 194.31
5.5519633 -1.4162097 -1.9360676 194.31
54.155163 -13.814044 2.6063428 194.31
5.9051108 -1.5062916 -1.9016324 194.31
54.116753 -13.804247 3.905386 194.31
6.4734821 -1.6512731 -1.9156796 194.31
54.139759 -13.810116 5.2127237 194.31
6.9985132 -1.7851995 -1.8907753 194.31
54.099228 -13.799776 6.5290632 194.31
7.5995064 -1.9385026 -1.8583076 194.31
7.6923304 -1.9621803 -1.6874113 194.31
9.1889133 -2.3439326 -1.7867178 194.31
9.9517193 -2.5699837 -1.6886473 194.48
10.819237 -2.7940159 -1.5704293 194.48
12.457623 -3.2171214 -1.5046161 194.48
13.024296 -3.363462 -1.2549701 194.48
13.077967 -3.3773222 -0.94450265 194.48
4.3324118 -1.1188245 -1.9921961 194.48
19.662848 -5.077836 -0.94704109 194.48
4.5636363 -1.1785371 -1.9687405 194.48
13.902044 -3.5901363 -0.33335343 194.48
4.8540893 -1.2535453 -1.9576434 194.48
48.762249 -12.592617 0 194.48
5.1351552 -1.3261293 -1.9303617 194.48
54.194935 -13.995583 1.299526 194.48
5.5367293 -1.4298339 -1.9322262 194.48
54.158428 -13.986155 2.6084855 194.48
5.917253 -1.5281022 -1.9069941 194.48
54.162487 -13.987203 3.911664 194.48
6.4629698 -1.6690309 -1.9140258 194.48
54.137108 -13.980649 5.2164397 194.48
6.9332385 -1.7904756 -1.8745673 194.48
54.100361 -13.971158 6.5341735 194.48
7.6106801 -1.9654217 -1.8624578 194.48
9.2180748 -2.3805237 -1.7937535 194.48
10.789329 -2.8224781 -1.5673674 194.66
12.460907 -3.2597616 -1.5062423 194.66
13.025224 -3.4073861 -1.2560848 194.66
4.3306432 -1.132892 -1.9930096 194.66
19.664194 -5.144134 -0.94787955 194.66
4.581336 -1.1984731 -1.9779906 194.66
31.907402 -8.3469458 -0.76572412 194.66
4.8501272 -1.2687886 -1.9576434 194.66
13.948617 -3.6489449 0 194.66
5.1291456 -1.3417796 -1.9296776 194.66
51.71146 -13.527669 1.2409884 194.66
5.5212116 -1.4443437 -1.9283848 194.66
54.16254 -14.168869 2.6108148 194.66
5.921658 -1.5491002 -1.9099729 194.66
54.124065 -14.158804 3.9120827 194.66
6.4576945 -1.6893266 -1.9140258 194.66
54.150715 -14.165775 5.222013 194.66
6.8695536 -1.7970686 -1.8588656 194.66
54.092716 -14.150602 6.5385876 194.66
7.6157646 -1.9922768 -1.8652244 194.66
7.6896639 -2.0116086 -1.6894904 194.66
9.2162552 -2.4109635 -1.7948644 194.66
10.751692 -2.8487511 -1.5631922 194.84
12.465967 -3.3029625 -1.5081006 194.84
13.045254 -3.4564495 -1.2590573 194.84
14.39878 -3.8150778 -1.0416037 194.84
4.3394256 -1.1497673 -1.9987038 194.84
19.651798 -5.2069092 -0.94806588 194.84
4.5704126 -1.2109692 -1.9749072 194.84
31.896484 -8.4512415 -0.76609546 194.84
4.844316 -1.2835423 -1.9569159 194.84
48.647366 -12.889528 0 194.84
5.1339884 -1.3602934 -1.9330978 194.84
54.204502 -14.361938 1.3018935 194.84
5.5184784 -1.4621673 -1.9290249 194.84
54.177628 -14.354817 2.613703 194.84
5.9075346 -1.565251 -1.9069941 194.84
54.141033 -14.345121 3.9165471 194.84
6.4597888 -1.7115754 -1.9162309 194.84
54.155994 -14.349086 5.2268434 194.84
6.8264685 -1.8087301 -1.8487356 194.84
54.099838 -14.334207 6.5448594 194.84
7.6132307 -2.0171895 -1.8661467 194.84
7.6700687 -2.0322492 -1.6865796 194.84
9.1934366 -2.435878 -1.7919019 194.84
9.8984642 -2.6559892 -1.6837837 195.02
12.463203 -3.3441684 -1.5090299 195.02
13.042024 -3.4994795 -1.2598004 195.02
14.421409 -3.8696008 -1.0441149 195.02
4.3287334 -1.1615002 -1.99545 195.02
19.629555 -5.2670679 -0.94778639 195.02
4.5754976 -1.2277129 -1.9787614 195.02
4.8276644 -1.2953751 -1.9518236 195.02
12.899698 -3.4612901 0 195.02
5.1387658 -1.3788508 -1.9365181 195.02
12.85953 -3.4505124 0.30912137 195.02
5.5101976 -1.4785148 -1.9277445 195.02
54.178574 -14.537376 2.6159389 195.02
5.9007444 -1.5833075 -1.9063984 195.02
54.128456 -14.52393 3.9189186 195.02
6.4525232 -1.7313627 -1.9156796 195.02
54.143345 -14.527924 5.2300019 195.02
6.947824 -1.8642634 -1.8831778 195.02
54.110176 -14.519025 6.5515962 195.02
7.6030965 -2.0400884 -1.8652244 195.02
9.2047215 -2.4698417 -1.7956051 195.02
9.8829212 -2.6832783 -1.6824867 195.19
10.856415 -2.947588 -1.5810064 195.19
12.464728 -3.3842556 -1.5104237 195.19
13.029661 -3.5376389 -1.2596146 195.19
14.429118 -3.9176006 -1.0455101 195.19
4.316452 -1.1719451 -1.9913826 195.19
19.592632 -5.3195286 -0.94676155 195.19
4.5611491 -1.238382 -1.9741364 195.19
4.7968311 -1.3023711 -1.9409114 195.19
48.824429 -13.256154 0 195.19
5.1382794 -1.3950766 -1.9378861 195.19
54.216099 -14.720027 1.3043073 195.19
5.5149293 -1.4973396 -1.9309456 195.19
54.189186 -14.712721 2.6185477 195.19
5.8831229 -1.5973066 -1.9022281 195.19
54.165993 -14.706424 3.9247782 195.19
6.4510684 -1.7515075 -1.9167821 195.19
54.169186 -14.70729 5.23669 195.19
6.9777389 -1.894502 -1.8928013 195.19
54.116703 -14.693041 6.5576363 195.19
7.6157913 -2.0677373 -1.8698356 195.19
7.6839428 -2.086241 -1.6924012 195.19
9.1916618 -2.4955966 -1.7944942 195.19
9.7883148 -2.6851261 -1.6675717 195.34
10.92697 -2.9974816 -1.5924187 195.34
12.444331 -3.4137237 -1.5090299 195.34
13.003072 -3.5669971 -1.2579426 195.34
14.41304 -3.953779 -1.0450915 195.34
4.3063207 -1.181308 -1.9881287 195.34
19.590199 -5.3739748 -0.94732058 195.34
4.5578914 -1.2503188 -1.9741364 195.34
31.678829 -8.6901226 -0.76266026 195.34
4.7969985 -1.3159105 -1.9423664 195.34
48.59861 -13.33155 0 195.34
5.1255474 -1.4060379 -1.9344659 195.34
54.229435 -14.876196 1.3055607 195.34
5.5109906 -1.5117725 -1.9309456 195.34
54.192871 -14.866164 2.6205974 195.34
5.8973331 -1.6177539 -1.9081856 195.34
54.177334 -14.861902 3.9284055 195.34
6.4557309 -1.7709334 -1.9195385 195.34
54.174664 -14.861171 5.240963 195.34
6.9876823 -1.916858 -1.8968533 195.34
54.131691 -14.849382 6.5641403 195.34
7.5897074 -2.0820053 -1.8647633 195.34
7.7124133 -2.1156659 -1.699886 195.34
9.177516 -2.5175722 -1.7930129 195.34
9.521677 -2.6423845 -1.6234748 195.50999
12.405437 -3.4426637 -1.5055454 195.50999
13.025051 -3.6146147 -1.2611009 195.50999
14.410858 -3.9991934 -1.045789 195.50999
4.3080788 -1.1955457 -1.9905691 195.50999
19.599194 -5.4390211 -0.94853175 195.50999
4.5541615 -1.2638367 -1.9741364 195.50999
31.620153 -8.7749882 -0.7618711 195.50999
4.8128195 -1.3356177 -1.9503686 195.50999
48.653275 -13.501892 0 195.50999
5.1340294 -1.4247575 -1.9392542 195.50999
49.272106 -13.673626 1.1871858 195.50999
5.4900489 -1.5235573 -1.9251835 195.50999
54.208199 -15.043453 2.6234853 195.50999
5.898026 -1.636776 -1.9099729 195.50999
54.16568 -15.031653 3.9307773 195.50999
6.4485955 -1.7895659 -1.9189873 195.50999
54.180222 -15.035689 5.2457933 195.50999
6.9651852 -1.9329259 -1.8922949 195.50999
54.140991 -15.024802 6.5706449 195.50999
7.6059995 -2.11076 -1.8702967 195.50999
7.7324929 -2.1458635 -1.7057076 195.50999
9.1226597 -2.531652 -1.7837553 195.50999
9.7147293 -2.7288578 -1.6578444 195.69
10.540455 -2.9608033 -1.5386978 195.69
12.430896 -3.4918263 -1.5099591 195.69
13.038554 -3.6625171 -1.2635161 195.69
14.430877 -4.0536189 -1.0481608 195.69
4.3130965 -1.2115445 -1.9946365 195.69
19.572393 -5.4978657 -0.94806588 195.69
4.5341783 -1.2736461 -1.9671987 195.69
31.555857 -8.8640089 -0.76098913 195.69
4.815774 -1.3527462 -1.9532785 195.69
12.956541 -3.6394794 0 195.69
5.1204815 -1.4383382 -1.9358341 195.69
54.247276 -15.238006 1.3082068 195.69
5.4925323 -1.5428468 -1.9277445 195.69
54.201065 -15.225025 2.625442 195.69
5.8928547 -1.6552972 -1.9099729 195.69
54.1931 -15.222788 3.9362183 195.69
6.4336872 -1.8072164 -1.9162309 195.69
54.16531 -15.214982 5.2489519 195.69
6.9497647 -1.9521819 -1.8897623 195.69
54.148983 -15.210396 6.5773816 195.69
7.6068254 -2.1367497 -1.8721412 195.69
7.5901084 -2.1320539 -1.6757683 195.69
9.1354752 -2.5661459 -1.7878287 195.69
9.7801428 -2.7804115 -1.6704898 195.87
10.515861 -2.9895697 -1.536471 195.87
10.465169 -2.9751585 -1.2723148 195.87
13.040392 -3.7072725 -1.2648166 195.87
14.414232 -4.0978436 -1.0478817 195.87
4.3145413 -1.2265874 -1.9970769 195.87
19.570396 -5.5636973 -0.94881123 195.87
4.5319295 -1.288389 -1.9679695 195.87
31.487465 -8.9516182 -0.76001424 195.87
4.8186684 -1.3699065 -1.9561884 195.87
48.015358 -13.650357 0 195.87
5.1177454 -1.4549314 -1.9365181 195.87
48.06012 -13.663083 1.1600291 195.87
5.5004158 -1.5637214 -1.9322262 195.87
54.227909 -15.416533 2.6290755 195.87
5.8912983 -1.6748461 -1.9111644 195.87
54.189148 -15.405514 3.9394271 195.87
6.4150333 -1.8237394 -1.912372 195.87
54.191948 -15.406309 5.2561975 195.87
6.9547639 -1.9771801 -1.8928013 195.87
54.150608 -15.394558 6.5834217 195.87
7.6131783 -2.164362 -1.8753691 195.87
7.5344481 -2.1419795 -1.6649568 195.87
9.1368208 -2.5975204 -1.7896801 195.87
9.6485643 -2.7739725 -1.6494142 196.03999
10.508848 -3.0213051 -1.5367494 196.03999
12.401697 -3.5655012 -1.5090299 196.03999
13.042732 -3.7497993 -1.2661171 196.03999
4.3126388 -1.2398883 -1.9978904 196.03999
19.532682 -5.6156673 -0.94778639 196.03999
4.5600123 -1.3110085 -1.9818448 196.03999
31.447315 -9.0411367 -0.75968933 196.03999
4.8163733 -1.3847125 -1.9569159 196.03999
12.968665 -3.7285051 0 196.03999
5.1188245 -1.4716675 -1.9385701 196.03999
54.247337 -15.596169 1.3104814 196.03999
5.4975729 -1.5805581 -1.9328663 196.03999
54.222252 -15.588955 2.631032 196.03999
5.8679543 -1.6870432 -1.9052069 196.03999
54.196888 -15.581664 3.9433334 196.03999
6.4280705 -1.8480772 -1.9178847 196.03999
54.207241 -15.58464 5.2621422 196.03999
6.9377098 -1.994599 -1.8897623 196.03999
54.163879 -15.572173 6.5906229 196.03999
7.6179452 -2.1901674 -1.8781357 196.03999
7.5092583 -2.1589198 -1.6607985 196.03999
9.1630735 -2.6343935 -1.7963456 196.03999
9.4242516 -2.7397819 -1.6124506 196.21001
10.440882 -3.0353327 -1.5281206 196.21001
10.40918 -3.0261166 -1.2676687 196.21001
13.031549 -3.7884815 -1.2661171 196.21001
4.3071866 -1.2521687 -1.9970769 196.21001
19.527445 -5.6769433 -0.94834542 196.21001
4.550786 -1.322987 -1.9795322 196.21001
31.358912 -9.1165419 -0.7582038 196.21001
4.8068767 -1.3974366 -1.9547335 196.21001
43.366585 -12.607366 0 196.21001
5.1036077 -1.483701 -1.9344659 196.21001
54.260345 -15.774358 1.3119205 196.21001
5.4964981 -1.5979207 -1.9341469 196.21001
54.229473 -15.765383 2.6336405 196.21001
5.8757563 -1.7081771 -1.9093771 196.21001
54.205978 -15.758552 3.9473794 196.21001
6.4225593 -1.8671415 -1.9178847 196.21001
54.202827 -15.757636 5.2662296 196.21001
6.948482 -2.0200357 -1.8943208 196.21001
54.159401 -15.745011 6.5957336 196.21001
7.6002007 -2.209501 -1.8753691 196.21001
9.1608791 -2.6632152 -1.7974565 196.21001
9.5954657 -2.8222792 -1.6432536 196.39
9.5534697 -2.8099272 -1.3995247 196.39
10.435831 -3.069453 -1.2720824 196.39
13.027225 -3.83165 -1.2668602 196.39
4.3067374 -1.2667249 -1.9987038 196.39
19.498014 -5.73488 -0.94778639 196.39
4.55723 -1.3404015 -1.9841573 196.39
31.314772 -9.2104998 -0.75783247 196.39
4.8006754 -1.4120053 -1.954006 196.39
12.968672 -3.8144283 0 196.39
5.1115422 -1.5034393 -1.9392542 196.39
46.827332 -13.773152 1.1332438 196.39
5.4914508 -1.6151805 -1.9341469 196.39
54.227596 -15.949765 2.6359699 196.39
5.8666973 -1.7255504 -1.9081856 196.39
54.207882 -15.943967 3.9511461 196.39
6.4129729 -1.8862244 -1.9167821 196.39
54.206551 -15.943575 5.2714314 196.39
6.9476705 -2.043493 -1.8958404 196.39
54.170654 -15.933017 6.6031671 196.39
7.6081581 -2.2377598 -1.879058 196.39
8.3329821 -2.4509497 -1.8462558 196.39
9.1468105 -2.6903181 -1.7963456 196.39
9.6443005 -2.8659289 -1.6529808 196.55
10.44626 -3.1042418 -1.2744055 196.55
13.031744 -3.8725519 -1.2683464 196.55
14.412396 -4.2828307 -1.0513695 196.55
4.3066859 -1.2797877 -2.0003309 196.55
19.480009 -5.7887373 -0.94769323 196.55
4.5517001 -1.3525968 -1.9833865 196.55
31.265928 -9.2910767 -0.7572754 196.55
4.8270726 -1.4344273 -1.9663731 196.55
43.030277 -12.787004 0 196.55
5.0983162 -1.5150309 -1.9358341 196.55
54.284615 -16.131378 1.3147987 196.55
5.4905515 -1.6315886 -1.9354273 196.55
54.247955 -16.120483 2.6391375 196.55
5.8527055 -1.7392074 -1.9052069 196.55
54.218609 -16.111763 3.9551921 196.55
6.411366 -1.9052206 -1.9178847 196.55
54.219082 -16.111902 5.2770052 196.55
6.95121 -2.0656421 -1.8983729 196.55
54.177361 -16.099506 6.6094394 196.55
7.6074762 -2.2606602 -1.8804413 196.55
8.3148537 -2.4708667 -1.8437608 196.55
9.0808582 -2.6984947 -1.7848662 196.55
9.7769995 -2.9388213 -1.6772989 196.73
10.574123 -3.1784251 -1.5517801 196.73
10.411726 -3.1296105 -1.2713856 196.73
12.973744 -3.8997154 -1.2638876 196.73
14.417977 -4.3338304 -1.0527647 196.73
4.3061438 -1.294363 -2.0019577 196.73
19.450247 -5.8464565 -0.94713426 196.73
4.5509634 -1.3679522 -1.9849281 196.73
31.171482 -9.3696861 -0.75569707 196.73
4.8154058 -1.4474398 -1.9634632 196.73
12.989861 -3.9045601 0 196.73
5.1025305 -1.5337452 -1.9392542 196.73
54.283455 -16.316803 1.3160056 196.73
5.4726968 -1.6450117 -1.9309456 196.73
54.244877 -16.305206 2.6414666 196.73
5.8618398 -1.7619823 -1.9099729 196.73
54.230778 -16.300968 3.959796 196.73
6.4016666 -1.9242463 -1.9167821 196.73
54.221592 -16.298208 5.282207 196.73
6.9391274 -2.085799 -1.8968533 196.73
54.191196 -16.289072 6.6173377 196.73
7.5835629 -2.2795067 -1.8762913 196.73
8.3613815 -2.5133073 -1.8558197 196.73
9.0648069 -2.7247467 -1.783385 196.73
9.7630892 -2.9643922 -1.6763262 196.89
10.752822 -3.2649074 -1.5793364 196.89
12.347439 -3.7490849 -1.5090299 196.89
13.014251 -3.9515507 -1.2689039 196.89
14.434455 -4.382771 -1.0548574 196.89
4.299016 -1.3053213 -2.0003309 196.89
19.445314 -5.9042315 -0.94769323 196.89
4.552423 -1.382264 -1.9872407 196.89
31.08206 -9.4375267 -0.75416511 196.89
4.8184757 -1.4630463 -1.9663731 196.89
42.813938 -12.999706 0 196.89
5.0748496 -1.5408897 -1.9303617 196.89
54.31612 -16.492144 1.3179089 196.89
5.4717078 -1.6613889 -1.9322262 196.89
54.260303 -16.475197 2.644448 196.89
5.8477621 -1.7755712 -1.9069941 196.89
54.232773 -16.466837 3.9632838 196.89
6.4165039 -1.9482597 -1.9228462 196.89
54.231129 -16.466337 5.2875948 196.89
6.940681 -2.1074171 -1.8988794 196.89
54.196819 -16.455921 6.6236095 196.89
7.5864787 -2.3035021 -1.8785969 196.89
8.3693056 -2.541194 -1.8591464 196.89
9.0910139 -2.7603281 -1.7900505 196.89
9.759388 -2.9967871 -1.6772989 197.07001
10.636488 -3.2661157 -1.563749 197.07001
12.364084 -3.7966037 -1.5125144 197.07001
13.013194 -3.995924 -1.2700186 197.07001
4.2931471 -1.3182843 -1.9995173 197.07001
19.413301 -5.9611864 -0.94704109 197.07001
4.5445299 -1.3954756 -1.9856991 197.07001
31.06946 -9.5404091 -0.75458294 197.07001
4.8156366 -1.4787236 -1.9671006 197.07001
42.761414 -13.130624 0 197.07001
5.0843563 -1.5612386 -1.9358341 197.07001
54.298443 -16.673265 1.3187445 197.07001
5.4610276 -1.6769019 -1.9303055 197.07001
54.259842 -16.661413 2.6469634 197.07001
5.8512807 -1.7967359 -1.9099729 197.07001
54.245617 -16.657045 3.9680274 197.07001
6.3993244 -1.9650221 -1.9195385 197.07001
54.236237 -16.654165 5.2931681 197.07001
6.9414244 -2.1314831 -1.9009054 197.07001
54.20182 -16.643597 6.630579 197.07001
7.5773439 -2.3267531 -1.8781357 197.07001
7.6880398 -2.360744 -1.7094499 197.07001
7.9155393 -2.4306018 -1.5600915 197.07001
9.7485685 -3.0251455 -1.6769747 197.24001
12.970851 -4.0250745 -1.267046 197.24001
4.2909617 -1.331558 -2.0003309 197.24001
19.406977 -6.0223131 -0.94760007 197.24001
4.533319 -1.4067656 -1.9826157 197.24001
30.96463 -9.6088486 -0.75272608 197.24001
4.8023314 -1.4902446 -1.9634632 197.24001
42.915192 -13.317309 0 197.24001
5.0958562 -1.5813303 -1.9419904 197.24001
12.996933 -4.0331683 0.31594533 197.24001
5.4596472 -1.6942208 -1.9315859 197.24001
54.282677 -16.844831 2.6505039 197.24001
5.8532176 -1.8163525 -1.9123559 197.24001
54.24931 -16.834478 3.9719336 197.24001
6.4099913 -1.9891287 -1.9245 197.24001
54.226524 -16.827408 5.2970695 197.24001
6.9332218 -2.1514959 -1.9003989 197.24001
54.207222 -16.821417 6.6373153 197.24001
7.5666895 -2.3480718 -1.8772135 197.24001
7.6436334 -2.3719485 -1.7011335 197.24001
9.7296019 -3.0528026 -1.6753534 197.42
10.552088 -3.3108695 -1.5542852 197.42
12.111323 -3.8001022 -1.4844059 197.42
12.986642 -4.0747457 -1.2698327 197.42
4.2885008 -1.3455789 -2.0011442 197.42
19.38415 -6.082056 -0.94741374 197.42
4.5341597 -1.4226578 -1.9849281 197.42
30.949553 -9.7108679 -0.75309741 197.42
4.7940707 -1.5042087 -1.9620082 197.42
42.67659 -13.390394 0 197.42
54.315769 -17.042355 1.3216691 197.42
5.4615293 -1.7136334 -1.9341469 197.42
54.280956 -17.031431 2.6530194 197.42
5.8584127 -1.8381612 -1.9159304 197.42
54.241844 -17.019159 3.975282 197.42
6.4037108 -2.0092564 -1.9245 197.42
54.243694 -17.019739 5.3039436 197.42
6.9005837 -2.1651576 -1.8933078 197.42
54.229919 -17.015419 6.6466074 197.42
7.5481343 -2.3683357 -1.8744467 197.42
8.9807043 -2.8178251 -1.7733867 197.42
9.7261448 -3.0834465 -1.6763262 197.59
10.510123 -3.3319886 -1.5495533 197.59
12.224972 -3.8756413 -1.4997379 197.59
12.974495 -4.1132598 -1.2698327 197.59
4.2914562 -1.3605057 -2.0043981 197.59
19.37554 -6.1425619 -0.94787955 197.59
4.5351963 -1.4377779 -1.9872407 197.59
30.846272 -9.779088 -0.75128698 197.59
4.7736034 -1.5133593 -1.9554609 197.59
12.998427 -4.1208472 0 197.59
5.0753527 -1.6090218 -1.9378861 197.59
54.324051 -17.222168 1.3231081 197.59
5.4618392 -1.7315483 -1.9360676 197.59
54.277794 -17.207504 2.6553485 197.59
5.8602128 -1.8578433 -1.9183134 197.59
54.253868 -17.199919 3.9798858 197.59
6.4032187 -2.0299907 -1.9261539 197.59
54.244209 -17.196857 5.30896 197.59
6.899662 -2.1873765 -1.8948274 197.59
54.218964 -17.188852 6.6514859 197.59
7.5466394 -2.3924856 -1.8758302 197.59
8.3339052 -2.6420696 -1.8583146 197.59
9.1034508 -2.8860359 -1.7993081 197.59
9.7019167 -3.107475 -1.6737322 197.75999
10.634108 -3.4060509 -1.5693159 197.75999
12.345844 -3.9543116 -1.515999 197.75999
