# .PCD v0.7 - Point Cloud Data file format
VERSION 0.7
FIELDS x y z intensity
SIZE 4 4 4 4
TYPE F F F F
COUNT 1 1 1 1
WIDTH 1210
HEIGHT 1
VIEWPOINT 0 0 0 1 0 0 0
POINTS 1210
DATA ascii
5.3979778 -0.69628537 -1.9809806 187.35001
11.636432 -1.5009837 0.27240187 187.35001
5.8254805 -0.7514289 -1.9847254 187.35001
6.2429428 -0.80527747 -1.9641861 187.35001
6.8031998 -0.877545 -1.9669482 187.35001
7.1786165 -0.92597002 -1.8948274 187.35001
7.737874 -0.99810863 -1.8486241 187.35001
8.3429489 -1.0761573 -1.7880405 187.35001
9.2902222 -1.1983461 -1.7648698 187.35001
10.417247 -1.3714566 -1.7262592 187.5
11.426144 -1.5042804 -1.6196965 187.5
14.522913 -1.9119778 -1.024304 187.5
4.4797401 -0.58976901 -2.0117195 187.5
13.716604 -1.8058252 -0.64518046 187.5
4.8029408 -0.63231915 -2.0234704 187.5
35.757729 -4.7075944 -0.83735263 187.5
5.0978956 -0.67115068 -2.0078394 187.5
44.876759 -5.9081378 0 187.5
5.4054532 -0.71164143 -1.9844009 187.5
11.644357 -1.5330086 0.2726804 187.5
5.8328857 -0.767914 -1.9879265 187.5
6.2408133 -0.82161868 -1.9641861 187.5
6.8104095 -0.8966074 -1.9697045 187.5
7.1032743 -0.9351638 -1.8755802 187.5
7.7622466 -1.0219191 -1.8550798 187.5
8.3362236 -1.0974847 -1.7872089 187.5
8.6966257 -1.1449325 -1.6526676 187.5
10.410932 -1.4039128 -1.725935 187.67999
11.317335 -1.5261412 -1.6049442 187.67999
13.696019 -1.8469064 -1.28934 187.67999
14.582083 -1.966392 -1.028908 187.67999
4.4869189 -0.60506046 -2.0157869 187.67999
23.745037 -3.2020154 -1.1173501 187.67999
4.8009305 -0.64740491 -2.0234704 187.67999
11.780171 -1.5885546 -0.27597636 187.67999
5.0976081 -0.68741179 -2.0085669 187.67999
44.586437 -6.012475 0 187.67999
5.429266 -0.73213583 -1.9939774 187.67999
11.63552 -1.5690484 0.27258757 187.67999
5.8341999 -0.78674114 -1.9892069 187.67999
6.2400937 -0.84147584 -1.9647818 187.67999
6.7961273 -0.91645694 -1.9663969 187.67999
7.211513 -0.97247165 -1.9049574 187.67999
7.7589979 -1.0462999 -1.8550798 187.67999
8.3424282 -1.1249754 -1.789288 187.67999
8.5975437 -1.1593777 -1.6345227 187.67999
10.32436 -1.4252775 -1.7123169 187.86
11.438048 -1.579022 -1.6227584 187.86
12.243656 -1.6902362 -1.4453793 187.86
13.705931 -1.8921032 -1.2908263 187.86
14.581763 -2.0130117 -1.0293266 187.86
4.477756 -0.61815405 -2.0125329 187.86
23.701218 -3.2719522 -1.1157663 187.86
4.813498 -0.66450322 -2.0296373 187.86
35.679909 -4.9256101 -0.8362385 187.86
5.0935779 -0.70316821 -2.0078394 187.86
44.616856 -6.1593556 0 187.86
5.4381099 -0.75073081 -1.9980817 187.86
11.658262 -1.6094227 0.27323747 187.86
5.8354535 -0.80558413 -1.9904875 187.86
6.227963 -0.85977 -1.9618031 187.86
6.8046412 -0.93938047 -1.9697045 187.86
7.2256718 -0.99750376 -1.909516 187.86
7.7498894 -1.0698719 -1.8536965 187.86
8.336915 -1.1509109 -1.7888722 187.86
8.5802307 -1.1845005 -1.6319306 187.86
10.42952 -1.4713426 -1.7304744 188.03
10.458637 -1.4754504 -1.4844203 188.03
12.29563 -1.7346036 -1.452116 188.03
13.710115 -1.934152 -1.2917552 188.03
14.589555 -2.0582187 -1.0303031 188.03
4.4795208 -0.63194758 -2.0141599 188.03
23.693382 -3.3425395 -1.1158594 188.03
4.8115053 -0.67878222 -2.0296373 188.03
35.690876 -5.0350838 -0.836842 188.03
5.0896244 -0.71801782 -2.0071118 188.03
44.731071 -6.3104277 0 188.03
5.4358582 -0.76686269 -1.9980817 188.03
5.8255329 -0.82183599 -1.9879265 188.03
6.2423987 -0.88064528 -1.9671649 188.03
6.7923059 -0.95822328 -1.9669482 188.03
7.2418389 -1.021641 -1.9145809 188.03
7.7428269 -1.0923178 -1.8527743 188.03
8.3354006 -1.1759151 -1.789288 188.03
8.5474863 -1.205835 -1.626376 188.03
10.425109 -1.5022811 -1.7304744 188.2
11.999438 -1.7291454 -1.4177355 188.2
14.587334 -2.1020668 -1.0305822 188.2
4.4812427 -0.64575696 -2.0157869 188.2
23.659632 -3.4094052 -1.1147414 188.2
4.8094702 -0.69305521 -2.0296373 188.2
11.7435 -1.6922642 -0.2754657 188.2
5.0930033 -0.733913 -2.0092943 188.2
5.4335589 -0.78298783 -1.9980817 188.2
5.8268194 -0.83965755 -1.9892069 188.2
6.2246408 -0.89698446 -1.9623988 188.2
6.7913356 -0.97864646 -1.9674995 188.2
7.2330308 -1.0422956 -1.9130615 188.2
7.7665186 -1.1191725 -1.8592299 188.2
8.3357477 -1.2011997 -1.7901196 188.2
9.2636414 -1.3349111 -1.7633885 188.2
10.445988 -1.5369409 -1.7346895 188.37
11.476445 -1.6885543 -1.6302737 188.37
11.412525 -1.6791496 -1.3489742 188.37
14.586954 -2.1462102 -1.0310007 188.37
4.4756918 -0.65851831 -2.0141599 188.37
23.623716 -3.4758089 -1.1135303 188.37
4.8073926 -0.70732212 -2.0296373 188.37
35.599045 -5.2377648 -0.83540291 188.37
5.0834308 -0.74793625 -2.0063844 188.37
11.694101 -1.7205787 0 188.37
5.43679 -0.79992676 -2.0001338 188.37
11.625671 -1.7105104 0.27281967 188.37
5.81493 -0.85556328 -1.9860058 188.37
6.2427297 -0.91850638 -1.9689521 188.37
6.7960105 -0.99991179 -1.9697045 188.37
7.226078 -1.0631886 -1.9120485 188.37
7.763164 -1.1422112 -1.8592299 188.37
8.3534374 -1.2290593 -1.7946937 188.37
9.2654734 -1.3632493 -1.7644994 188.37
10.447237 -1.5688072 -1.7356622 188.53999
11.545811 -1.7337743 -1.6408509 188.53999
11.405528 -1.7127088 -1.3487419 188.53999
14.586441 -2.1903698 -1.0314193 188.53999
4.4809456 -0.67288029 -2.0174139 188.53999
23.605398 -3.5446999 -1.1131575 188.53999
4.8034477 -0.72130877 -2.0288663 188.53999
11.758956 -1.7657813 -0.27606919 188.53999
5.0848742 -0.76356912 -2.0078394 188.53999
5.4343925 -0.81605452 -2.0001338 188.53999
90.793297 -13.633957 2.1315866 188.53999
5.8292294 -0.87534505 -1.9917679 188.53999
6.2494173 -0.93844247 -1.9719309 188.53999
6.7968159 -1.0206425 -1.9708071 188.53999
7.2248049 -1.0849113 -1.912555 188.53999
7.7481933 -1.1635059 -1.8564632 188.53999
8.3188 -1.2491909 -1.7880405 188.53999
9.2633314 -1.3910263 -1.7648698 188.53999
10.442257 -1.6016204 -1.7356622 188.72
10.827724 -1.660743 -1.5395329 188.72
14.587376 -2.2373936 -1.0319773 188.72
4.4390783 -0.68086034 -1.9995173 188.72
23.604019 -3.6203551 -1.1136234 188.72
4.7975097 -0.73583609 -2.0273247 188.72
11.717776 -1.797258 -0.2752336 188.72
5.0787673 -0.77897501 -2.0063844 188.72
5.4299445 -0.83283818 -1.9994497 188.72
5.8227048 -0.89307928 -1.9904875 188.72
6.2426639 -0.95749205 -1.9707394 188.72
6.7992768 -1.0428647 -1.9724609 188.72
7.2232733 -1.1078967 -1.9130615 188.72
7.7464237 -1.1881368 -1.8569243 188.72
8.3109674 -1.2747258 -1.7872089 188.72
9.2589159 -1.420121 -1.7648698 188.72
9.5719938 -1.4955112 -1.5916992 188.88
10.81326 -1.6894445 -1.5381411 188.88
12.233216 -1.9112959 -1.4479346 188.88
14.590927 -2.2796605 -1.0326748 188.88
4.4371595 -0.69325387 -1.9995173 188.88
23.568157 -3.6822467 -1.1124122 188.88
4.7990828 -0.74980015 -2.0288663 188.88
11.722589 -1.8315164 -0.2754657 188.88
5.0765719 -0.79315454 -2.0063844 188.88
11.705988 -1.8289226 0 188.88
5.4275975 -0.84799814 -1.9994497 188.88
5.8108282 -0.90787339 -1.9872862 188.88
6.2456245 -0.97580522 -1.9725266 188.88
6.7849412 -1.0600672 -1.9691533 188.88
7.2125049 -1.1268688 -1.9110354 188.88
7.7411528 -1.2094638 -1.8564632 188.88
8.2609863 -1.2906818 -1.7772292 188.88
8.2548552 -1.2897238 -1.5741631 188.88
9.5630836 -1.5266227 -1.5910507 189.07001
12.421012 -1.9828539 -1.4709325 189.07001
13.802537 -2.2033966 -1.3040169 189.07001
14.593138 -2.3296056 -1.0333724 189.07001
4.4655085 -0.71286064 -2.0133464 189.07001
23.542006 -3.7581768 -1.11176 189.07001
4.7965703 -0.76571035 -2.0288663 189.07001
11.704604 -1.8684887 -0.27518716 189.07001
5.0757537 -0.81027842 -2.0071118 189.07001
70.684998 -11.283945 0 189.07001
5.4117646 -0.86391819 -1.9946615 189.07001
5.8171411 -0.92863125 -1.9904875 189.07001
87.537277 -13.974195 4.1339064 189.07001
6.2480106 -0.99741405 -1.9743139 189.07001
6.7813888 -1.082561 -1.9691533 189.07001
7.2087283 -1.1507802 -1.9110354 189.07001
7.7505517 -1.2372754 -1.859691 189.07001
8.1272287 -1.2974068 -1.749369 189.07001
8.1146736 -1.2954026 -1.5482419 189.07001
11.547553 -1.8765008 -1.644191 189.23
12.482092 -2.0283654 -1.4788307 189.23
13.033689 -2.118001 -1.2319329 189.23
14.598392 -2.3722684 -1.0342095 189.23
4.4707141 -0.72650015 -2.0166004 189.23
23.509727 -3.8203788 -1.1107352 189.23
4.7798405 -0.77673382 -2.0226996 189.23
11.77631 -1.9136744 -0.27699763 189.23
5.0697932 -0.82385176 -2.005657 189.23
70.47554 -11.452419 0 189.23
5.4000554 -0.87752002 -1.9912412 189.23
5.807044 -0.9436565 -1.9879265 189.23
6.2395473 -1.0139391 -1.9725266 189.23
6.7783394 -1.101494 -1.9691533 189.23
7.1997576 -1.1699753 -1.909516 189.23
7.7432246 -1.2582898 -1.8587688 189.23
8.2683964 -1.3436311 -1.7805557 189.23
10.41053 -1.7253189 -1.7337168 189.41
11.5162 -1.9085597 -1.6405725 189.41
12.497215 -2.0711415 -1.4813859 189.41
14.600708 -2.4197497 -1.0349071 189.41
4.4774222 -0.74203533 -2.0206676 189.41
23.489727 -3.8929112 -1.1103625 189.41
4.7937627 -0.79446185 -2.0296373 189.41
11.736707 -1.9451038 -0.27620846 189.41
5.0635042 -0.83916569 -2.0042019 189.41
11.678703 -1.9354911 0 189.41
5.4028344 -0.89540231 -1.9932934 189.41
5.8040509 -0.96189517 -1.9879265 189.41
87.452812 -14.493402 4.1339064 189.41
6.232564 -1.0329119 -1.9713351 189.41
6.7710519 -1.1221546 -1.9680507 189.41
7.1865025 -1.1910064 -1.9069834 189.41
7.7123547 -1.278155 -1.8523132 189.41
8.2544842 -1.3680012 -1.7784766 189.41
7.9381528 -1.3155762 -1.5160253 189.41
10.464054 -1.764227 -1.743444 189.57001
11.54012 -1.9456506 -1.6447477 189.57001
12.444371 -2.0981061 -1.4758108 189.57001
14.591927 -2.4601815 -1.0347675 189.57001
4.4663243 -0.75301695 -2.0166004 189.57001
23.478764 -3.9584916 -1.1103625 189.57001
4.7915254 -0.80784547 -2.0296373 189.57001
35.524921 -5.9894595 -0.83642417 189.57001
5.0629783 -0.85361212 -2.0049295 189.57001
5.4095793 -0.91204858 -1.9967136 189.57001
90.835205 -15.314707 2.138689 189.57001
5.805079 -0.97872937 -1.9892069 189.57001
45.369686 -7.6492753 2.1456327 189.57001
6.2296553 -1.0503125 -1.9713351 189.57001
6.7641006 -1.1404192 -1.9669482 189.57001
7.1736093 -1.2094619 -1.9044509 189.57001
7.7221885 -1.3019518 -1.855541 189.57001
8.136817 -1.3718576 -1.753943 189.57001
8.1166267 -1.3684535 -1.5508339 189.57001
10.361208 -1.7803811 -1.727232 189.75
11.555422 -1.9855846 -1.6478095 189.75
12.465127 -2.1419005 -1.479063 189.75
14.59789 -2.5083761 -1.0357441 189.75
4.4639368 -0.7670446 -2.0166004 189.75
23.503622 -4.038661 -1.1121328 189.75
4.7780509 -0.82101929 -2.0250123 189.75
11.784075 -2.0248744 -0.27760109 189.75
5.0694518 -0.87109119 -2.0085669 189.75
49.855339 -8.5667143 0 189.75
5.4140959 -0.93031186 -1.9994497 189.75
45.368687 -7.7957664 1.0687642 189.75
5.803843 -0.99728256 -1.9898472 189.75
45.296207 -7.7833118 2.1433034 189.75
6.2131534 -1.067615 -1.9671649 189.75
45.25267 -7.7758312 3.2107511 189.75
6.7566948 -1.1610125 -1.9658456 189.75
7.1602397 -1.2303542 -1.9019184 189.75
7.712306 -1.3252165 -1.8541576 189.75
8.0977621 -1.39145 -1.7464582 189.75
8.0464287 -1.3826293 -1.5382437 189.75
8.3170929 -1.4515651 -1.3871031 189.89999
11.497506 -2.0066359 -1.6402942 189.89999
12.477089 -2.1776006 -1.4811537 189.89999
13.480802 -2.3527765 -1.2767067 189.89999
14.606997 -2.549329 -1.0368602 189.89999
4.4727125 -0.7806133 -2.021481 189.89999
23.429991 -4.0891876 -1.1091514 189.89999
4.7831569 -0.83479452 -2.0280955 189.89999
11.741309 -2.0491865 -0.27671909 189.89999
5.0579777 -0.88275844 -2.0049295 189.89999
11.746444 -2.0500827 0 189.89999
5.4005337 -0.94254398 -1.9953455 189.89999
45.261456 -7.8993888 1.0667217 189.89999
5.7900128 -1.010519 -1.9860058 189.89999
45.189079 -7.8867569 2.139204 189.89999
6.2028141 -1.0825644 -1.9647818 189.89999
45.21447 -7.8911886 3.2094953 189.89999
6.7649956 -1.1806808 -1.9691533 189.89999
7.1589003 -1.2494282 -1.9024249 189.89999
7.706893 -1.3450682 -1.8536965 189.89999
7.9803886 -1.3928008 -1.7219247 189.89999
8.0040579 -1.3969318 -1.5308375 189.89999
8.3105488 -1.4773414 -1.3867788 190.08
10.12227 -1.7994056 -1.4448951 190.08
12.413467 -2.2067051 -1.474417 190.08
14.606772 -2.5966022 -1.0374182 190.08
4.4666405 -0.79402131 -2.0198541 190.08
23.418995 -4.1631246 -1.1092446 190.08
4.7823277 -0.85014009 -2.0288663 190.08
11.736782 -2.0864127 -0.27676553 190.08
5.0606823 -0.89962238 -2.0071118 190.08
45.561699 -8.0993671 0 190.08
5.3938451 -0.9588477 -1.9939774 190.08
45.230511 -8.040493 1.0665824 190.08
5.7886753 -1.0290354 -1.9866461 190.08
45.18375 -8.0321798 2.1401358 190.08
6.2238193 -1.1063898 -1.9725266 190.08
45.287674 -8.0506544 3.216471 190.08
6.7612529 -1.2019278 -1.9691533 190.08
7.1416054 -1.2695419 -1.8988794 190.08
7.6834688 -1.3658673 -1.8490853 190.08
7.8584819 -1.3969789 -1.6965594 190.08
8.077033 -1.43583 -1.5456496 190.08
11.302426 -2.0438116 -1.3431667 190.25
13.370158 -2.4177184 -1.2676034 190.25
14.604894 -2.640995 -1.0378368 190.25
4.4660625 -0.80759567 -2.0206676 190.25
23.400642 -4.2315254 -1.108965 190.25
4.7670722 -0.86202705 -2.0234704 190.25
11.760054 -2.126564 -0.27746183 190.25
5.0616574 -0.91529673 -2.0085669 190.25
11.737638 -2.1225107 0 190.25
5.3909764 -0.97484732 -1.9939774 190.25
45.359924 -8.2024107 1.0702033 190.25
5.7837319 -1.0458691 -1.9860058 190.25
6.2186303 -1.1245116 -1.9719309 190.25
6.7292795 -1.2168519 -1.9608841 190.25
7.1244793 -1.2883158 -1.8953339 190.25
7.6812973 -1.3890048 -1.8495464 190.25
7.842752 -1.4182006 -1.6940645 190.25
7.9624963 -1.4398539 -1.5245423 190.25
7.9539423 -1.4641269 -1.3287398 190.42999
10.9019 -2.0067742 -1.5579036 190.42999
13.364455 -2.4600706 -1.2677891 190.42999
14.612222 -2.689754 -1.0389529 190.42999
4.4635034 -0.82162225 -2.0206676 190.42999
23.355795 -4.299233 -1.1074744 190.42999
4.7697854 -0.87800127 -2.0257831 190.42999
11.731684 -2.159517 -0.27695119 190.42999
5.0642533 -0.93220568 -2.0107493 190.42999
11.715176 -2.1564784 0 190.42999
5.3952804 -0.99313968 -1.9967136 190.42999
85.649551 -15.765995 2.0219388 190.42999
5.7785544 -1.063691 -1.9853655 190.42999
85.605171 -15.757826 4.0591865 190.42999
6.2113113 -1.1433511 -1.9707394 190.42999
6.7197509 -1.2369424 -1.9592303 190.42999
7.131814 -1.3127931 -1.8983729 190.42999
7.6864653 -1.414891 -1.8518519 190.42999
7.8709655 -1.4488529 -1.7011335 190.42999
7.940537 -1.4616594 -1.5212096 190.42999
8.0036182 -1.4992822 -1.3378185 190.61
12.517485 -2.3448448 -1.4892843 190.61
12.000247 -2.2479532 -1.1390409 190.61
14.607622 -2.7363811 -1.0392319 190.61
4.4591045 -0.83530426 -2.0198541 190.61
23.336283 -4.3714824 -1.1071949 190.61
4.7706313 -0.8936612 -2.0273247 190.61
29.815216 -5.5851521 -0.7042619 190.61
5.0612998 -0.94811088 -2.0107493 190.61
11.688685 -2.1895895 0 190.61
5.3902864 -1.0097384 -1.9960296 190.61
29.809319 -5.5840478 0.70412266 190.61
5.7714591 -1.0811418 -1.9840851 190.61
29.798729 -5.5820637 1.413807 190.61
6.217072 -1.1646165 -1.973718 190.61
29.795706 -5.5814972 2.1197598 190.61
6.7177215 -1.258401 -1.9597816 190.61
29.84697 -5.5911007 2.8330183 190.61
7.1238513 -1.3344795 -1.8973598 190.61
29.801023 -5.5824938 3.5456161 190.61
7.6819825 -1.4390317 -1.8518519 190.61
7.8721433 -1.4746537 -1.7023809 190.61
7.8026104 -1.4616284 -1.4956586 190.61
8.0536852 -1.5319527 -1.3468972 190.77
11.432636 -2.1746886 -1.6355623 190.77
12.522596 -2.3820183 -1.4906781 190.77
13.377009 -2.5445428 -1.2703902 190.77
14.611684 -2.7793994 -1.040069 190.77
4.4585495 -0.84809458 -2.0206676 190.77
23.329872 -4.4377522 -1.1074744 190.77
4.7663045 -0.90663499 -2.0265539 190.77
11.761876 -2.2373159 -0.27797246 190.77
5.0549722 -0.96154469 -2.0092943 190.77
11.696279 -2.224838 0 190.77
5.3726759 -1.0219775 -1.9905572 190.77
5.7758632 -1.0986708 -1.9866461 190.77
6.2025418 -1.1798327 -1.9701436 190.77
85.700317 -16.301708 6.1002035 190.77
6.721736 -1.2785925 -1.9619867 190.77
7.118196 -1.3540062 -1.8968533 190.77
7.6779342 -1.4604782 -1.8518519 190.77
7.9083533 -1.504308 -1.7111132 190.77
7.8081527 -1.4852481 -1.4975102 190.77
7.934782 -1.5337439 -1.327767 190.94
11.482525 -2.2195005 -1.6436343 190.94
13.365491 -2.5834661 -1.2700186 190.94
14.615126 -2.8250127 -1.0409061 190.94
4.4613948 -0.86235982 -2.023108 190.94
23.281296 -4.5001292 -1.1057974 190.94
4.7635932 -0.92077285 -2.0265539 190.94
11.715923 -2.2646151 -0.27704403 190.94
5.0429511 -0.97477102 -2.005657 190.94
11.693553 -2.2602909 0 190.94
5.3530126 -1.034704 -1.9844009 190.94
61.744171 -11.934764 1.4600518 190.94
5.7576952 -1.1129266 -1.9815241 190.94
6.1990137 -1.1982307 -1.9701436 190.94
6.7046995 -1.2959766 -1.9581277 190.94
7.1160469 -1.3754874 -1.8973598 190.94
7.6735668 -1.4832526 -1.8518519 190.94
7.8750439 -1.5221969 -1.7048758 190.94
7.8056412 -1.5087818 -1.4978805 190.94
8.0209398 -1.5765536 -1.3430064 191.12
11.545456 -2.2693141 -1.6536548 191.12
12.447388 -2.4465928 -1.4834768 191.12
14.612052 -2.8720679 -1.0413246 191.12
4.4461141 -0.87390476 -2.0174139 191.12
23.239597 -4.567853 -1.104493 191.12
4.7679205 -0.93715727 -2.0296373 191.12
11.755837 -2.3106654 -0.27815816 191.12
5.0380359 -0.99024981 -2.0049295 191.12
11.686395 -2.2970161 0 191.12
5.3423591 -1.050066 -1.9816647 191.12
5.7578888 -1.1317403 -1.9828047 191.12
6.2083325 -1.2202771 -1.9743139 191.12
6.7024813 -1.3174044 -1.9586791 191.12
7.0946045 -1.394478 -1.8928013 191.12
7.6440449 -1.5024731 -1.8458575 191.12
7.8721423 -1.5473068 -1.7052916 191.12
7.766149 -1.5264733 -1.491215 191.12
8.0684805 -1.6107771 -1.3517609 191.28999
8.2077818 -1.6385869 -1.1762911 191.28999
12.510202 -2.4975147 -1.4918395 191.28999
13.343601 -2.663893 -1.2694612 191.28999
14.624988 -2.9197066 -1.0428593 191.28999
4.4399185 -0.88637739 -2.0157869 191.28999
23.245535 -4.640697 -1.1054248 191.28999
4.7524505 -0.94877076 -2.0242414 191.28999
35.42522 -7.072228 -0.83869886 191.28999
5.0442104 -1.0070173 -2.0085669 191.28999
11.710909 -2.337945 0 191.28999
5.342906 -1.0666482 -1.9830328 191.28999
5.7619381 -1.1503031 -1.9853655 191.28999
6.2009401 -1.2379446 -1.9731224 191.28999
6.7004285 -1.3376616 -1.9592303 191.28999
7.0809488 -1.413628 -1.8902688 191.28999
7.6662717 -1.5304809 -1.8523132 191.28999
8.0094814 -1.5989985 -1.7360626 191.28999
7.8560276 -1.5683634 -1.5093598 191.28999
8.0711174 -1.6376868 -1.3530579 191.47
8.0803108 -1.6395524 -1.1587552 191.47
14.615743 -2.9656377 -1.0428593 191.47
4.4442739 -0.9017747 -2.0190406 191.47
23.226925 -4.7129078 -1.1052384 191.47
4.7584896 -0.96553123 -2.0280955 191.47
35.367554 -7.1763272 -0.83786327 191.47
5.0355444 -1.0217477 -2.0063844 191.47
11.701546 -2.3743265 0 191.47
5.3468962 -1.0849231 -1.9857689 191.47
5.776865 -1.1721668 -1.9917679 191.47
6.2063756 -1.2593176 -1.976101 191.47
6.7093821 -1.3613812 -1.9630892 191.47
7.0859537 -1.4377902 -1.8928013 191.47
7.6537967 -1.5530096 -1.8504686 191.47
7.9814115 -1.619485 -1.7310728 191.47
7.7952032 -1.5817019 -1.4986211 191.47
8.1164789 -1.6719799 -1.3614881 191.64
11.534084 -2.3760004 -1.6550465 191.64
12.521952 -2.579499 -1.4950918 191.64
14.577568 -3.0029523 -1.0407666 191.64
4.4308419 -0.91274536 -2.0141599 191.64
23.195229 -4.7781744 -1.1043999 191.64
4.7447586 -0.97741157 -2.0234704 191.64
35.350021 -7.2820401 -0.83795613 191.64
5.0270166 -1.0355563 -2.0042019 191.64
11.680737 -2.4062107 0 191.64
5.3436537 -1.1007829 -1.9857689 191.64
5.7677941 -1.1881551 -1.9898472 191.64
6.1895223 -1.2750303 -1.9719309 191.64
6.7090793 -1.382058 -1.9641918 191.64
7.0816565 -1.4588083 -1.8928013 191.64
7.6624975 -1.5784606 -1.8536965 191.64
7.9382501 -1.635265 -1.7227563 191.64
7.7731509 -1.6012548 -1.4952884 191.64
8.115346 -1.6968625 -1.3621366 191.81
11.5328 -2.4114282 -1.6558815 191.81
12.313969 -2.574765 -1.4711647 191.81
14.439703 -3.0192413 -1.0315588 191.81
4.4352679 -0.92738366 -2.0174139 191.81
23.175083 -4.8457484 -1.1041204 191.81
4.7544827 -0.99412924 -2.0288663 191.81
35.349789 -7.3913951 -0.83846676 191.81
5.03304 -1.0523736 -2.0078394 191.81
11.675505 -2.4412668 0 191.81
5.3495622 -1.1185563 -1.9891891 191.81
5.7642436 -1.2052633 -1.9898472 191.81
6.1913185 -1.2945616 -1.973718 191.81
6.6974216 -1.4003843 -1.9619867 191.81
7.0810847 -1.4806055 -1.8938143 191.81
7.6520658 -1.5999937 -1.8523132 191.81
8.0252781 -1.6780298 -1.7427158 191.81
7.8376226 -1.6387924 -1.5086193 191.81
8.0658731 -1.7115117 -1.354679 191.98
12.537516 -2.6603572 -1.4988086 191.98
13.337826 -2.8301766 -1.2720622 191.98
14.512651 -3.0794649 -1.0374182 191.98
4.4396458 -0.94205624 -2.0206676 191.98
23.129333 -4.9078541 -1.1026297 191.98
4.7533174 -1.0086147 -2.0296373 191.98
35.286629 -7.4875317 -0.83749187 191.98
5.0207834 -1.0653688 -2.0042019 191.98
11.666253 -2.4754827 0 191.98
5.3609271 -1.1375445 -1.9946615 191.98
5.7476678 -1.2196077 -1.9853655 191.98
6.178112 -1.3109444 -1.9707394 191.98
6.695118 -1.4206488 -1.962538 191.98
7.0766602 -1.501609 -1.8938143 191.98
7.6549001 -1.6243066 -1.8541576 191.98
8.0432281 -1.7067066 -1.7477057 191.98
7.742363 -1.6428655 -1.491215 191.98
10.966478 -2.361021 -1.5765529 192.14999
12.649968 -2.7234669 -1.5132113 192.14999
13.298222 -2.8630323 -1.2690896 192.14999
14.359118 -3.0914371 -1.0270944 192.14999
4.4404035 -0.95599389 -2.0222945 192.14999
23.138107 -4.981504 -1.1037477 192.14999
4.7448912 -1.0215484 -2.0273247 192.14999
11.763223 -2.5325556 -0.27936512 192.14999
5.0194216 -1.0806532 -2.0049295 192.14999
11.670588 -2.5126119 0 192.14999
5.3556914 -1.1530502 -1.9939774 192.14999
96.160141 -20.702738 2.28371 192.14999
5.7421713 -1.2362572 -1.9847254 192.14999
6.1685958 -1.328064 -1.9689521 192.14999
6.6927528 -1.4409119 -1.9630892 192.14999
7.0797396 -1.5242281 -1.8958404 192.14999
7.6614618 -1.6494696 -1.8569243 192.14999
8.0687284 -1.7371517 -1.7543589 192.14999
7.7566686 -1.6699671 -1.494918 192.14999
8.1021576 -1.7680374 -1.3624609 192.31
12.63261 -2.756664 -1.5120498 192.31
13.319358 -2.9065251 -1.2718763 192.31
14.578492 -3.1812909 -1.0434173 192.31
4.4341464 -0.96761101 -2.0206676 192.31
23.092875 -5.0392833 -1.102257 192.31
4.7402172 -1.0344012 -2.0265539 192.31
35.219479 -7.6855273 -0.8369348 192.31
5.0236645 -1.0962546 -2.0078394 192.31
11.686975 -2.5503092 0 192.31
5.356123 -1.168803 -1.9953455 192.31
96.199631 -20.9925 2.2860312 192.31
5.7368455 -1.2518835 -1.9840851 192.31
6.176055 -1.3477269 -1.9725266 192.31
6.6868243 -1.4591861 -1.962538 192.31
7.0603333 -1.5406924 -1.8917884 192.31
7.6587272 -1.6712729 -1.8573854 192.31
7.9969497 -1.7450792 -1.739805 192.31
7.9055934 -1.7251436 -1.5245423 192.31
8.1851978 -1.813116 -1.3773758 192.49001
11.47243 -2.541276 -1.651428 192.49001
12.674313 -2.8075068 -1.5180897 192.49001
13.296552 -2.9453399 -1.2705759 192.49001
14.595696 -3.2331154 -1.0453705 192.49001
4.4293008 -0.98114133 -2.0198541 192.49001
23.11204 -5.1195841 -1.103934 192.49001
4.7297368 -1.0476913 -2.0234704 192.49001
35.173687 -7.791378 -0.83642417 192.49001
5.0129204 -1.1104198 -2.0049295 192.49001
11.714052 -2.5947981 0 192.49001
5.34692 -1.1844045 -1.9932934 192.49001
96.195679 -21.308455 2.2875166 192.49001
5.7069855 -1.2641633 -1.9751219 192.49001
6.1661983 -1.3658842 -1.9707394 192.49001
6.678453 -1.4793546 -1.9614354 192.49001
7.0686812 -1.5657946 -1.8953339 192.49001
7.653439 -1.6953251 -1.8573854 192.49001
7.9780579 -1.7672321 -1.7368942 192.49001
7.9845667 -1.7686738 -1.5408357 192.49001
10.105739 -2.2681615 -1.7016169 192.64999
10.740616 -2.4106553 -1.5470482 192.64999
12.716818 -2.8541999 -1.5241295 192.64999
13.268845 -2.9780984 -1.268718 192.64999
4.4265437 -0.99350643 -2.0198541 192.64999
23.070362 -5.1779799 -1.1026297 192.64999
4.7393975 -1.0637243 -2.0288663 192.64999
11.797252 -2.6478097 -0.28071135 192.64999
5.000711 -1.1223742 -2.001292 192.64999
11.71847 -2.6301277 0 192.64999
5.3454251 -1.1997429 -1.9939774 192.64999
5.7071309 -1.2809252 -1.9764023 192.64999
6.1698117 -1.3847706 -1.9731224 192.64999
6.6817994 -1.4996827 -1.9636406 192.64999
7.0623932 -1.5851042 -1.8948274 192.64999
7.648675 -1.716691 -1.8573854 192.64999
7.9654565 -1.7877903 -1.7352309 192.64999
7.9105587 -1.7754689 -1.5275048 192.64999
10.105859 -2.3034153 -1.7029139 192.84
12.744082 -2.9047422 -1.5285432 192.84
13.216182 -3.0123472 -1.2646308 192.84
11.871793 -2.7059224 -0.85144752 192.84
4.4232249 -1.0081799 -2.0198541 192.84
23.031639 -5.2495718 -1.1016048 192.84
4.7376432 -1.079845 -2.0296373 192.84
35.135181 -8.008317 -0.83665627 192.84
5.0096765 -1.141849 -2.0063844 192.84
11.768183 -2.6823068 0 192.84
5.3395848 -1.2170447 -1.9932934 192.84
5.7176309 -1.3032122 -1.9815241 192.84
6.167047 -1.405647 -1.973718 192.84
6.6655431 -1.5192686 -1.9603329 192.84
7.062757 -1.6098051 -1.8963468 192.84
7.6581197 -1.7455053 -1.8610743 192.84
8.1273336 -1.8524525 -1.7718234 192.84
7.8586369 -1.791209 -1.5186175 192.84
9.9586096 -2.300957 -1.6792443 193.00999
11.47591 -2.6515324 -1.6553248 193.00999
12.621215 -2.9161572 -1.5148374 193.00999
13.154799 -3.0394433 -1.2596146 193.00999
13.115593 -3.0303843 -0.94129384 193.00999
4.4184337 -1.0208881 -2.0190406 193.00999
23.080196 -5.3327265 -1.1046793 193.00999
4.7290239 -1.0926507 -2.0273247 193.00999
35.119057 -8.1143303 -0.836842 193.00999
4.9953756 -1.1541916 -2.0020196 193.00999
5.3322883 -1.232036 -1.9919254 193.00999
90.157814 -20.831146 2.1483448 193.00999
5.7229695 -1.3223037 -1.9847254 193.00999
90.109512 -20.819986 4.31288 193.00999
6.1684299 -1.4252282 -1.9755054 193.00999
6.6385279 -1.5338453 -1.9537176 193.00999
7.0730309 -1.6342381 -1.9003989 193.00999
7.6623878 -1.7704103 -1.86338 193.00999
8.2609453 -1.9087081 -1.8021785 193.00999
7.9528661 -1.837526 -1.5378733 193.00999
9.8418074 -2.3065629 -1.6607625 193.19
9.7706308 -2.2898817 -1.4103802 193.19
12.530761 -2.9367561 -1.5050807 193.19
12.61395 -2.9562526 -1.2087098 193.19
4.4134259 -1.0343471 -2.0182273 193.19
22.995251 -5.3892531 -1.1014185 193.19
4.727365 -1.107923 -2.0280955 193.19
11.79124 -2.7634392 -0.28117555 193.19
4.9880972 -1.1690291 -2.0005646 193.19
49.187218 -11.527701 0 193.19
5.3229017 -1.2474953 -1.9898732 193.19
90.138649 -21.125233 2.1494589 193.19
5.7132525 -1.3389794 -1.9828047 193.19
90.119522 -21.120749 4.3165135 193.19
6.165781 -1.4450356 -1.976101 193.19
6.570035 -1.539778 -1.9349742 193.19
7.073513 -1.6577752 -1.9019184 193.19
7.651104 -1.7931414 -1.8619965 193.19
8.2549076 -1.9346511 -1.8021785 193.19
8.0293379 -1.8817858 -1.5537964 193.19
9.7907572 -2.3252654 -1.6533051 193.36
9.8235283 -2.3330486 -1.419009 193.36
12.541319 -2.9785128 -1.5074037 193.36
13.149549 -3.1229651 -1.2609152 193.36
4.4050045 -1.0461708 -2.0157869 193.36
22.975271 -5.4565344 -1.1012322 193.36
4.7222614 -1.121518 -2.0273247 193.36
35.088291 -8.3333273 -0.8373062 193.36
4.9972944 -1.1868373 -2.005657 193.36
11.714167 -2.7820673 0 193.36
5.3264914 -1.2650203 -1.9926094 193.36
44.797535 -10.639234 1.0689963 193.36
5.7166286 -1.3576763 -1.9853655 193.36
44.737637 -10.625009 2.1443284 193.36
6.1577511 -1.4624411 -1.9749095 193.36
44.840214 -10.64937 3.222749 193.36
6.5504732 -1.555711 -1.930564 193.36
44.885166 -10.660046 4.3040547 193.36
7.0723281 -1.6796495 -1.9029315 193.36
7.6571102 -1.8185329 -1.8647633 193.36
8.2453241 -1.9582313 -1.8013469 193.36
8.0275431 -1.9065093 -1.5545369 193.36
9.7846365 -2.3508894 -1.6533051 193.50999
9.7904272 -2.3522809 -1.4151121 193.50999
12.533478 -3.0113356 -1.5074037 193.50999
13.1665 -3.1634276 -1.2633303 193.50999
4.4182396 -1.0615411 -2.023108 193.50999
22.984219 -5.5222654 -1.1023502 193.50999
4.7193089 -1.133877 -2.0273247 193.50999
35.081905 -8.4288969 -0.8376776 193.50999
4.9814901 -1.1968696 -2.0005646 193.50999
44.995502 -10.810771 0 193.50999
5.314024 -1.2767653 -1.9891891 193.50999
44.668434 -10.732187 1.0665824 193.50999
5.7130547 -1.3726377 -1.9853655 193.50999
44.593113 -10.714091 2.1387384 193.50999
6.1464758 -1.4767729 -1.9725266 193.50999
44.686085 -10.736429 3.2136807 193.50999
6.5669408 -1.5777953 -1.9366281 193.50999
44.771908 -10.75705 4.2958803 193.50999
7.062263 -1.696803 -1.9014119 193.50999
7.6447544 -1.8367543 -1.8629189 193.50999
8.2344627 -1.9784398 -1.8000994 193.50999
7.9174175 -1.9022654 -1.5341703 193.50999
9.8577366 -2.4012344 -1.6669232 193.69
9.7714434 -2.3802142 -1.413442 193.69
12.522026 -3.0502255 -1.5071715 193.69
13.135214 -3.1995914 -1.2612867 193.69
12.989536 -3.1641059 -0.93487626 193.69
4.4077821 -1.0736865 -2.0198541 193.69
22.925995 -5.584516 -1.1003937 193.69
4.7193098 -1.1495711 -2.0288663 193.69
11.768619 -2.866704 -0.28122199 193.69
4.9813256 -1.2133952 -2.0020196 193.69
5.3172908 -1.2952327 -1.9919254 193.69
44.686947 -10.885242 1.0678358 193.69
5.708714 -1.390579 -1.9853655 193.69
44.582527 -10.859805 2.1398563 193.69
6.1455159 -1.496979 -1.973718 193.69
44.659889 -10.87865 3.2142389 193.69
6.6329317 -1.6157081 -1.9575765 193.69
44.78046 -10.908019 4.2999678 193.69
7.070056 -1.7221867 -1.9049574 193.69
7.6389461 -1.8607619 -1.8629189 193.69
8.2396116 -2.0070772 -1.8025943 193.69
7.8827586 -1.9201519 -1.5286157 193.69
9.9536076 -2.4577386 -1.6844321 193.87
9.7773762 -2.4142239 -1.4153905 193.87
12.446811 -3.073359 -1.4992732 193.87
13.063232 -3.2255654 -1.2553416 193.87
12.989216 -3.2072892 -0.93557382 193.87
4.399066 -1.0862147 -2.0174139 193.87
22.890881 -5.6522021 -1.0995553 193.87
4.708508 -1.162622 -2.0257831 193.87
13.654128 -3.3714688 -0.32652944 193.87
4.9811063 -1.2299317 -2.0034745 193.87
11.685056 -2.8852668 0 193.87
5.302248 -1.3092278 -1.9878211 193.87
44.741825 -11.047624 1.0699712 193.87
5.7006383 -1.4075981 -1.9840851 193.87
44.654865 -11.026153 2.1449804 193.87
6.1444898 -1.5171937 -1.9749095 193.87
6.625957 -1.6360772 -1.9570252 193.87
7.0702462 -1.7457808 -1.9064769 193.87
7.6538458 -1.8898829 -1.8679911 193.87
8.218071 -2.029201 -1.7992678 193.87
7.8805037 -1.9458492 -1.5293564 193.87
9.9596739 -2.4906123 -1.6867019 194.03999
9.7394285 -2.4355357 -1.410937 194.03999
12.439565 -3.1107578 -1.4995055 194.03999
12.982125 -3.2464356 -1.2484676 194.03999
12.87706 -3.2201622 -0.92817962 194.03999
4.3922787 -1.0983756 -2.0157869 194.03999
22.885637 -5.7230039 -1.1001142 194.03999
4.7086186 -1.1774826 -2.0273247 194.03999
35.004375 -8.7535324 -0.83772397 194.03999
4.9828572 -1.2460614 -2.005657 194.03999
49.530785 -12.386147 0 194.03999
5.3038096 -1.326322 -1.9898732 194.03999
90.211044 -22.559046 2.1589289 194.03999
5.7037892 -1.4263448 -1.9866461 194.03999
90.170341 -22.548868 4.3344946 194.03999
6.1307001 -1.5331022 -1.9719309 194.03999
6.615478 -1.6543304 -1.9553714 194.03999
7.0781741 -1.7700366 -1.9100224 194.03999
7.6425409 -1.9111676 -1.8666078 194.03999
8.1474876 -2.0374393 -1.7851298 194.03999
7.870882 -1.9682689 -1.5286157 194.03999
9.925456 -2.5133698 -1.6821625 194.21001
11.392337 -2.8848202 -1.3742951 194.21001
12.740786 -3.2262805 -1.2261735 194.21001
12.900329 -3.2666807 -0.93055135 194.21001
4.385458 -1.1105059 -2.0141599 194.21001
22.824013 -5.7796021 -1.0979713 194.21001
4.7122602 -1.1932603 -2.0304081 194.21001
11.767314 -2.9797738 -0.28182545 194.21001
4.9809442 -1.2612977 -2.0063844 194.21001
49.449223 -12.52176 0 194.21001
5.3126044 -1.3452822 -1.9946615 194.21001
90.230934 -22.848694 2.1610179 194.21001
5.6885118 -1.4404712 -1.9828047 194.21001
90.203751 -22.84181 4.3393393 194.21001
6.1372294 -1.5540975 -1.9755054 194.21001
6.631041 -1.6791428 -1.9614354 194.21001
7.0485082 -1.7848558 -1.9034379 194.21001
7.644383 -1.935746 -1.8684522 194.21001
8.1603708 -2.0664067 -1.789288 194.21001
8.8119335 -2.2313983 -1.7126569 194.21001
9.8472214 -2.5246732 -1.6701655 194.38
11.279819 -2.8919687 -1.3617508 194.38
12.513184 -3.208184 -1.2051799 194.38
4.3874531 -1.1248742 -2.0166004 194.38
22.806765 -5.8472967 -1.0979713 194.38
4.7069116 -1.2067783 -2.0296373 194.38
34.916954 -8.9521589 -0.83688843 194.38
4.9699616 -1.2742202 -2.0034745 194.38
11.70347 -3.000586 0 194.38
5.3122306 -1.3619726 -1.9960296 194.38
90.247963 -23.138163 2.1630604 194.38
5.6823773 -1.4568723 -1.9821644 194.38
90.191704 -23.123739 4.342041 194.38
6.1325912 -1.5723002 -1.9755054 194.38
6.6204429 -1.6973777 -1.9597816 194.38
7.0637975 -1.811047 -1.9090095 194.38
7.62918 -1.9560021 -1.8661467 194.38
8.1371489 -2.0862372 -1.7855456 194.38
8.8090811 -2.2585104 -1.7133975 194.38
9.7628355 -2.5357511 -1.6571959 194.56
11.340564 -2.9455428 -1.6466961 194.56
12.585921 -3.269006 -1.2131686 194.56
4.3803606 -1.1377336 -2.0149734 194.56
22.830822 -5.9299664 -1.100021 194.56
4.6977382 -1.2201676 -2.0273247 194.56
34.884785 -9.0608044 -0.83679557 194.56
4.9749498 -1.2921692 -2.0071118 194.56
44.199432 -11.480145 0 194.56
5.3042874 -1.3777097 -1.9946615 194.56
90.240631 -23.438662 2.1646388 194.56
5.6887755 -1.4775748 -1.9860058 194.56
90.2211 -23.433588 4.3469791 194.56
6.1313171 -1.5925184 -1.9766968 194.56
6.5946093 -1.7128516 -1.9537176 194.56
7.058073 -1.8332295 -1.9090095 194.56
7.6229973 -1.9799602 -1.8661467 194.56
8.2119732 -2.1329379 -1.803426 194.56
8.8285751 -2.2930911 -1.7185818 194.56
9.8397017 -2.5850689 -1.6714625 194.72
11.395507 -2.9938073 -1.6558815 194.72
12.449628 -3.2707441 -1.200907 194.72
4.3877692 -1.1527469 -2.0198541 194.72
4.6871729 -1.2314057 -2.0242414 194.72
11.784803 -3.0960824 -0.28289315 194.72
4.9659162 -1.3046367 -2.0049295 194.72
44.151726 -11.599463 0 194.72
5.2822423 -1.3877413 -1.9878211 194.72
90.263779 -23.71394 2.166774 194.72
5.6754646 -1.4910479 -1.9828047 194.72
90.26545 -23.714376 4.3522897 194.72
6.1194601 -1.6076936 -1.9743139 194.72
6.5358772 -1.7170939 -1.9377307 194.72
7.0473123 -1.8514574 -1.9074899 194.72
7.6155562 -2.0007453 -1.8656856 194.72
8.204093 -2.1553648 -1.8030102 194.72
8.8202362 -2.3172367 -1.7182114 194.72
9.871583 -2.6266251 -1.6782715 194.89999
11.407099 -3.0351944 -1.6589434 194.89999
12.910769 -3.4352899 -1.246424 194.89999
12.632545 -3.3612602 -0.91408885 194.89999
4.3858919 -1.1669956 -2.0206676 194.89999
12.825335 -3.4125576 -0.61890739 194.89999
4.6939821 -1.2489721 -2.0288663 194.89999
34.820744 -9.2650833 -0.83656347 194.89999
4.9563923 -1.318794 -2.0027471 194.89999
11.724074 -3.119535 0 194.89999
5.2869377 -1.4067453 -1.9912412 194.89999
90.287376 -24.023615 2.1691415 194.89999
5.6634283 -1.5069216 -1.9802437 194.89999
90.263863 -24.017357 4.3558297 194.89999
6.1162243 -1.6274014 -1.9749095 194.89999
6.5248766 -1.7361355 -1.9360768 194.89999
7.0115452 -1.8656279 -1.8993859 194.89999
7.6073527 -2.0241599 -1.8652244 194.89999
6.9629607 -1.8527006 -1.3575351 194.89999
9.8999538 -2.6656523 -1.6844321 195.07001
11.399956 -3.0695415 -1.6592218 195.07001
12.301074 -3.3121758 -1.4897488 195.07001
12.912056 -3.4766881 -1.2475387 195.07001
12.551235 -3.3795338 -0.90892684 195.07001
4.3788815 -1.1790535 -2.0190406 195.07001
4.6777816 -1.2595351 -2.0234704 195.07001
34.84523 -9.3823938 -0.83781683 195.07001
4.9506583 -1.3330097 -2.0020196 195.07001
5.2918143 -1.4248689 -1.9946615 195.07001
5.6534433 -1.5222409 -1.978323 195.07001
6.1132121 -1.6460378 -1.9755054 195.07001
6.5178404 -1.7549876 -1.9355255 195.07001
7.0115838 -1.8879325 -1.9009054 195.07001
7.5862799 -2.0426745 -1.8615354 195.07001
6.9893594 -1.8819484 -1.5385466 195.07001
8.7869377 -2.3659627 -1.7145084 195.07001
9.9167547 -2.7017584 -1.6886473 195.24001
11.398441 -3.1054347 -1.6603351 195.24001
12.302691 -3.3517921 -1.4911426 195.24001
12.644226 -3.4448409 -1.2226436 195.24001
12.622001 -3.4387858 -0.9147864 195.24001
4.3806524 -1.1934816 -2.021481 195.24001
4.6847072 -1.2763194 -2.0280955 195.24001
11.823739 -3.2213044 -0.28451791 195.24001
4.9520741 -1.3491619 -2.0042019 195.24001
5.2784967 -1.4380937 -1.9912412 195.24001
5.62148 -1.5315373 -1.9687195 195.24001
6.1009331 -1.6621614 -1.9731224 195.24001
6.544138 -1.7829099 -1.9448972 195.24001
7.0022178 -1.9077108 -1.8998923 195.24001
7.2741241 -1.9817901 -1.7863731 195.24001
6.9931822 -1.9052491 -1.5406256 195.24001
7.1737113 -1.9544332 -1.4008608 195.24001
9.9177303 -2.7355232 -1.6902685 195.42
11.38481 -3.1401753 -1.6597784 195.42
12.280611 -3.3872564 -1.4897488 195.42
12.955846 -3.5735006 -1.2538553 195.42
12.478427 -3.4418182 -0.90516001 195.42
4.3786426 -1.2077237 -2.0222945 195.42
13.194425 -3.6393058 -0.63828611 195.42
4.6753373 -1.2895584 -2.0257831 195.42
12.877533 -3.5519001 -0.31014264 195.42
4.9531989 -1.3661987 -2.0063844 195.42
11.75312 -3.2417629 0 195.42
5.272141 -1.4541698 -1.9905572 195.42
5.6148143 -1.5486864 -1.9680792 195.42
6.0901599 -1.6797968 -1.9713351 195.42
6.5607443 -1.8095943 -1.9515125 195.42
6.9905944 -1.9281561 -1.8983729 195.42
7.072752 -1.9508169 -1.7384168 195.42
6.9324718 -1.9121246 -1.5285667 195.42
7.1732202 -1.9785281 -1.4019717 195.42
9.9404697 -2.7716889 -1.6954564 195.58
10.34962 -2.885772 -1.5100281 195.58
12.246229 -3.4146011 -1.4867289 195.58
12.683025 -3.5363925 -1.228403 195.58
12.541797 -3.4970138 -0.91046149 195.58
4.3664532 -1.2174928 -2.0182273 195.58
4.66994 -1.3021138 -2.0250123 195.58
13.225799 -3.6877334 -0.31877705 195.58
4.9529533 -1.3810259 -2.0078394 195.58
5.2698703 -1.4693915 -1.9912412 195.58
5.6104674 -1.5643598 -1.9680792 195.58
6.0799279 -1.6952589 -1.9695479 195.58
6.5575175 -1.8284246 -1.9520638 195.58
6.9590907 -1.9403948 -1.8912818 195.58
6.9004364 -1.9240402 -1.6973773 195.58
6.9459496 -1.9367306 -1.532725 195.58
8.7276659 -2.4335246 -1.7071023 195.58
9.9279146 -2.801832 -1.6948079 195.75999
11.36407 -3.2071404 -1.6595 195.75999
12.237353 -3.4535964 -1.4869612 195.75999
12.346049 -3.4842722 -1.1968197 195.75999
12.542269 -3.539649 -0.91129857 195.75999
4.3696404 -1.2331895 -2.021481 195.75999
4.6587219 -1.3147733 -2.0219288 195.75999
4.9467974 -1.3960732 -2.0071118 195.75999
11.758699 -3.3185117 0 195.75999
5.2634192 -1.4854295 -1.9905572 195.75999
5.6073489 -1.5824925 -1.9687195 195.75999
6.0966215 -1.7205738 -1.9766968 195.75999
6.5424895 -1.8464056 -1.9493073 195.75999
6.9622707 -1.9648753 -1.8938143 195.75999
6.9393086 -1.958395 -1.7084441 195.75999
6.9793687 -1.9697006 -1.5414573 195.75999
8.7180862 -2.4603975 -1.706732 195.75999
9.9414225 -2.8337646 -1.6983745 195.91
12.214897 -3.4818101 -1.4853351 195.91
12.518817 -3.5684412 -1.2144692 195.91
4.3628826 -1.2436231 -2.0198541 195.91
4.6605883 -1.328483 -2.0242414 195.91
4.9431257 -1.4090191 -2.0071118 195.91
46.663292 -13.301193 0 195.91
5.2396312 -1.4935368 -1.9830328 195.91
5.6086531 -1.5987253 -1.9706402 195.91
6.0829158 -1.733912 -1.973718 195.91
6.5394821 -1.8640546 -1.9498587 195.91
6.9496603 -1.9809742 -1.8917884 195.91
6.9116993 -1.9701536 -1.7029107 195.91
6.9986458 -1.9949373 -1.546863 195.91
7.0766521 -2.0171728 -1.3864189 195.91
9.9376593 -2.8683579 -1.6993473 196.10001
10.625558 -3.0669098 -1.5542852 196.10001
12.201376 -3.5217462 -1.4851028 196.10001
12.661887 -3.6546662 -1.2295177 196.10001
4.3534684 -1.2565641 -2.0174139 196.10001
12.895015 -3.7219548 -0.6258949 196.10001
4.6579304 -1.3444425 -2.0250123 196.10001
4.9455857 -1.42747 -2.0100217 196.10001
46.814926 -13.512434 0 196.10001
5.2418723 -1.5129887 -1.9857689 196.10001
5.6178842 -1.621519 -1.975762 196.10001
6.0863042 -1.7567214 -1.9766968 196.10001
6.5314178 -1.8851968 -1.9493073 196.10001
6.9504886 -2.0061555 -1.8938143 196.10001
7.0472317 -2.0340788 -1.7379557 196.10001
7.0746927 -2.0420051 -1.5651592 196.10001
9.9371891 -2.8983083 -1.7006443 196.25999
10.635965 -3.1021154 -1.5570687 196.25999
12.212471 -3.5619233 -1.4876581 196.25999
12.242529 -3.5706902 -1.1897599 196.25999
12.84417 -3.7461662 -0.93557382 196.25999
4.3499427 -1.2687163 -2.0174139 196.25999
12.8021 -3.7338963 -0.62188876 196.25999
4.6523862 -1.356928 -2.0242414 196.25999
13.108161 -3.8231628 -0.31701303 196.25999
4.9380031 -1.4402318 -2.0085669 196.25999
11.819532 -3.4473178 0 196.25999
5.2268014 -1.5244634 -1.9816647 196.25999
5.6187911 -1.6387923 -1.9776827 196.25999
6.0722103 -1.7710378 -1.973718 196.25999
6.5335102 -1.9055818 -1.9515125 196.25999
6.9058537 -2.0141804 -1.8831778 196.25999
6.8229361 -1.9899966 -1.6840048 196.25999
6.9788165 -2.0354612 -1.5451996 196.25999
8.6604347 -2.5259266 -1.6996962 196.25999
9.9369869 -2.9340394 -1.7022654 196.45
10.667408 -3.1497071 -1.5631922 196.45
12.18154 -3.5967765 -1.4853351 196.45
12.192424 -3.5999899 -1.1860442 196.45
12.475772 -3.6836526 -0.9096244 196.45
4.3404546 -1.2815821 -2.0149734 196.45
12.525232 -3.6982567 -0.60903174 196.45
4.6602507 -1.3760066 -2.0296373 196.45
4.9278398 -1.4550161 -2.0063844 196.45
46.593403 -13.757379 0 196.45
5.2109027 -1.5385946 -1.9775605 196.45
5.6096916 -1.6563427 -1.9764023 196.45
6.0663037 -1.7911643 -1.973718 196.45
6.5455937 -1.9326814 -1.9570252 196.45
6.8750134 -2.0299475 -1.8765932 196.45
6.9021564 -2.0379617 -1.7052163 196.45
6.9194942 -2.043081 -1.5335566 196.45
8.665206 -2.5585277 -1.7022884 196.45
9.9093266 -2.9578655 -1.699023 196.62
11.367791 -3.3932071 -1.6672938 196.62
12.170815 -3.6329038 -1.4853351 196.62
12.424025 -3.7084854 -1.2096388 196.62
12.308022 -3.6738594 -0.89818436 196.62
4.3401346 -1.2955 -2.0166004 196.62
12.445288 -3.7148321 -0.60567772 196.62
4.6490736 -1.3877163 -2.0265539 196.62
4.9306417 -1.4717624 -2.0092943 196.62
5.1937084 -1.5502861 -1.9727722 196.62
5.610199 -1.6746056 -1.978323 196.62
6.0719395 -1.8124319 -1.9772925 196.62
6.5306191 -1.9493446 -1.9542688 196.62
6.8912082 -2.0569777 -1.8826712 196.62
6.8755665 -2.052309 -1.7001439 196.62
6.7896805 -2.0266726 -1.5061123 196.62
8.6594591 -2.5847886 -1.7026587 196.62
9.9237022 -2.992363 -1.7029139 196.78
11.365856 -3.4272256 -1.6684071 196.78
12.16823 -3.6691711 -1.4862643 196.78
12.343078 -3.721894 -1.2027647 196.78
4.3382492 -1.3081424 -2.0174139 196.78
13.077553 -3.9433656 -0.63698179 196.78
4.638113 -1.3985624 -2.0234704 196.78
4.9247289 -1.4849877 -2.0085669 196.78
11.766696 -3.5480936 0 196.78
5.2109513 -1.5712944 -1.9809806 196.78
5.6055007 -1.6902657 -1.978323 196.78
6.054059 -1.8255225 -1.9731224 196.78
6.5122657 -1.9636887 -1.9504099 196.78
6.8965516 -2.079565 -1.8857102 196.78
6.8362699 -2.061388 -1.6918439 196.78
7.033103 -2.1207404 -1.5614167 196.78
8.6578531 -2.6106625 -1.7037696 196.78
9.9322987 -3.0252388 -1.705832 196.94
11.358136 -3.4595287 -1.6686854 196.94
12.190241 -3.7129762 -1.4902135 196.94
12.521226 -3.8137896 -1.2211574 196.94
12.422819 -3.7838163 -0.90808976 196.94
4.3240924 -1.3170578 -2.0125329 196.94
4.6341891 -1.411509 -2.0234704 196.94
13.048476 -3.9743826 -0.31668809 196.94
4.9259095 -1.5003629 -2.0107493 196.94
5.228117 -1.5924112 -1.9891891 196.94
5.5935087 -1.7037042 -1.975762 196.94
70.762009 -21.553116 3.4495959 196.94
6.0507641 -1.8429779 -1.973718 196.94
70.820946 -21.571066 5.1769071 196.94
6.5104346 -1.982987 -1.9515125 196.94
6.9036732 -2.102762 -1.8892558 196.94
6.9105392 -2.1048532 -1.7116719 196.94
6.8793116 -2.0953419 -1.5285667 196.94
6.9170384 -2.106833 -1.3623492 196.94
9.89958 -3.0511832 -1.7019411 197.13
11.365528 -3.5030081 -1.671469 197.13
12.187353 -3.7563057 -1.491375 197.13
12.426681 -3.8300695 -1.2131686 197.13
12.196661 -3.7591746 -0.89246434 197.13
4.3284311 -1.3340806 -2.0166004 197.13
4.6294832 -1.4268688 -2.0234704 197.13
4.920907 -1.5166895 -2.0107493 197.13
11.880503 -3.6617305 0 197.13
5.2263999 -1.6108465 -1.9905572 197.13
5.5986924 -1.7255921 -1.9796034 197.13
6.0281987 -1.8579717 -1.9683564 197.13
70.140816 -21.61834 5.1324024 197.13
6.509335 -2.0062644 -1.9531662 197.13
70.166023 -21.62611 6.8500371 197.13
6.9133029 -2.1307728 -1.8938143 197.13
6.913455 -2.1308196 -1.5377148 197.13
6.9550915 -2.1436527 -1.3712364 197.13
9.9777012 -3.1057978 -1.7168562 197.28999
11.35381 -3.5341444 -1.6711906 197.28999
12.178713 -3.7909148 -1.4916073 197.28999
12.800013 -3.9843094 -1.250697 197.28999
12.26041 -3.8163452 -0.89790535 197.28999
4.3281779 -1.3472487 -2.0182273 197.28999
4.6131458 -1.4359517 -2.0180745 197.28999
4.9148736 -1.5298717 -2.0100217 197.28999
51.214241 -15.941655 0 197.28999
5.2147031 -1.6232008 -1.9878211 197.28999
5.5974703 -1.7423462 -1.980884 197.28999
69.469238 -21.623959 3.3929505 197.28999
6.03757 -1.8793378 -1.9731224 197.28999
69.422951 -21.60955 5.0842705 197.28999
6.4981999 -2.0227199 -1.9515125 197.28999
69.515938 -21.638493 6.7924442 197.28999
6.9221048 -2.1546702 -1.8978664 197.28999
6.8678212 -2.1377733 -1.7042941 197.28999
6.954175 -2.1646528 -1.5481105 197.28999
8.6624212 -2.6963854 -1.7093241 197.28999
10.018723 -3.1531248 -1.7256107 197.47
11.350208 -3.5721743 -1.672304 197.47
12.166743 -3.8291566 -1.4916073 197.47
12.814026 -4.0328717 -1.253298 197.47
12.147496 -3.8230991 -0.89051116 197.47
4.3274097 -1.3619363 -2.0198541 197.47
12.4193 -3.9086423 -0.60716838 197.47
4.6209345 -1.4543154 -2.0234704 197.47
4.9118199 -1.5458639 -2.0107493 197.47
51.110493 -16.085659 0 197.47
5.2167487 -1.6418321 -1.9905572 197.47
68.895035 -21.682867 1.676887 197.47
5.5973911 -1.761629 -1.9828047 197.47
6.0298152 -1.897723 -1.9725266 197.47
6.5083179 -2.0483189 -1.9564739 197.47
68.938545 -21.696562 6.7426538 197.47
6.9282203 -2.1804719 -1.9014119 197.47
6.8745637 -2.1635849 -1.5318934 197.47
8.6689053 -2.7283061 -1.7122866 197.47
9.9805584 -3.1756082 -1.7207471 197.64999
11.350254 -3.6114173 -1.673974 197.64999
12.167904 -3.8715768 -1.4932333 197.64999
12.412282 -3.949333 -1.2152123 197.64999
12.239992 -3.8945136 -0.89818436 197.64999
4.3248506 -1.3760786 -2.0206676 197.64999
4.6040325 -1.4649084 -2.0180745 197.64999
4.9051642 -1.5607224 -2.0100217 197.64999
11.919204 -3.7924454 0 197.64999
5.218729 -1.6604922 -1.9932934 197.64999
5.5936346 -1.7797794 -1.9834448 197.64999
6.0256429 -1.9172356 -1.9731224 197.64999
6.5000191 -2.0681722 -1.9559227 197.64999
68.315941 -21.736727 6.688405 197.64999
6.8936801 -2.1934273 -1.8938143 197.64999
7.0322866 -2.2375288 -1.7485614 197.64999
6.8677325 -2.1851714 -1.5318934 197.64999
8.6602917 -2.7555268 -1.7122866 197.64999
10.053761 -3.2317812 -1.7350137 197.82001
11.352687 -3.6493208 -1.6759225 197.82001
12.163928 -3.9100943 -1.4941626 197.82001
12.373968 -3.9776118 -1.2126113 197.82001
12.226483 -3.9302027 -0.89804482 197.82001
4.3277063 -1.3911412 -2.0239215 197.82001
4.6031795 -1.4796919 -2.0196164 197.82001
12.704174 -4.0837564 -0.30981767 197.82001
4.8969646 -1.5741291 -2.0085669 197.82001
50.984619 -16.389004 0 197.82001
5.2245145 -1.67942 -1.9973977 197.82001
5.5847216 -1.7952086 -1.9821644 197.82001
67.632446 -21.740446 3.3129201 197.82001
6.019928 -1.9351056 -1.9731224 197.82001
6.4956841 -2.0880375 -1.9564739 197.82001
67.627426 -21.738834 6.6272821 197.82001
6.870564 -2.2085426 -1.8892558 197.82001
7.4813924 -2.4048934 -1.8619965 197.82001
8.6558199 -2.782413 -1.7130272 197.82001
9.9896936 -3.2439208 -1.7256107 197.99001
12.169277 -3.9516897 -1.4962533 197.99001
12.23332 -3.9724863 -1.199978 197.99001
12.180612 -3.9553704 -0.89553362 197.99001
4.3270354 -1.4051042 -2.0255485 197.99001
4.5917478 -1.4910634 -2.0165329 197.99001
4.8958163 -1.5898025 -2.0100217 197.99001
51.008053 -16.563679 0 197.99001
5.2195086 -1.694914 -1.9973977 197.99001
66.993385 -21.754543 1.6353397 197.99001
5.5775685 -1.8111856 -1.9815241 197.99001
66.978592 -21.749741 3.2840383 197.99001
6.0050802 -1.9500102 -1.9701436 197.99001
6.4748321 -2.1025512 -1.9520638 197.99001
6.8290172 -2.2175646 -1.8796322 197.99001
7.4686713 -2.4252772 -1.8606132 197.99001
7.9896431 -2.5944507 -1.7855456 197.99001
8.6493959 -2.8086901 -1.7133975 197.99001
9.9162664 -3.2526331 -1.7145866 198.16
12.189587 -3.9983044 -1.5002024 198.16
12.204451 -4.00318 -1.198306 198.16
12.261714 -4.0219631 -0.90236974 198.16
4.3211112 -1.4173671 -2.024735 198.16
12.568755 -4.1226754 -0.61685771 198.16
4.5943179 -1.5069815 -2.0196164 198.16
12.772811 -4.1896076 -0.31209233 198.16
4.9052391 -1.6089668 -2.0158417 198.16
50.761044 -16.650122 0 198.16
5.2162423 -1.7109789 -1.9980817 198.16
66.36808 -21.769384 1.6216453 198.16
5.5703697 -1.827136 -1.980884 198.16
6.0065246 -1.9701992 -1.9725266 198.16
6.4502974 -2.115761 -1.946551 198.16
66.403564 -21.781023 6.5198994 198.16
6.9216824 -2.27038 -1.9069834 198.16
7.4059668 -2.4292302 -1.8467797 198.16
7.9837689 -2.6187549 -1.7859614 198.16
8.6036739 -2.8220897 -1.7059914 198.16
9.7969179 -3.2457125 -1.4504621 198.33
12.190869 -4.0388269 -1.5018286 198.33
12.266241 -4.063798 -1.2055515 198.33
12.170183 -4.0319738 -0.89651018 198.33
4.3186212 -1.4307564 -2.0255485 198.33
12.302341 -4.0757575 -0.6043734 198.33
4.5810671 -1.5177046 -2.0157621 198.33
12.805876 -4.2425785 -0.31320646 198.33
4.8916016 -1.6205844 -2.0122042 198.33
50.597507 -16.76292 0 198.33
5.1933026 -1.7205378 -1.9912412 198.33
5.5649238 -1.8436556 -1.980884 198.33
65.750298 -21.783031 3.2300949 198.33
5.9861536 -1.9832089 -1.9677606 198.33
6.4859662 -2.1487963 -1.9592303 198.33
