# .PCD v0.7 - Point Cloud Data file format
VERSION 0.7
FIELDS x y z intensity
SIZE 4 4 4 4
TYPE F F F F
COUNT 1 1 1 1
WIDTH 1218
HEIGHT 1
VIEWPOINT 0 0 0 1 0 0 0
POINTS 1218
DATA ascii
5.1153111 -2.9783776 -2.0000908 210.21001
40.472557 -23.565048 2.1840174 210.21001
5.5008144 -3.202836 -1.9862288 210.21001
40.485088 -23.572346 3.2759035 210.21001
5.93293 -3.4544339 -1.9686019 210.21001
40.515167 -23.589859 4.3739095 210.21001
6.4557071 -3.7588198 -1.9556077 210.21001
40.49638 -23.578918 5.47999 210.21001
6.9458694 -4.0442157 -1.9044195 210.21001
40.527878 -23.597258 6.5909595 210.21001
7.6229372 -4.438437 -1.8749477 210.21001
8.1646423 -4.7538433 -1.7800522 210.21001
9.22785 -5.4096184 -1.7573864 210.38
10.726523 -6.2881818 -1.7474575 210.38
12.054183 -7.0664921 -1.634008 210.38
12.700584 -7.4454308 -1.3735001 210.38
13.943259 -8.1739206 -1.1301944 210.38
3.9468386 -2.313745 -2.036937 210.38
19.554916 -11.463627 -1.0570711 210.38
4.1999006 -2.4620969 -2.0334914 210.38
26.010004 -15.247777 -0.69999117 210.38
4.4856772 -2.6296268 -2.0303912 210.38
39.977066 -23.435652 0 210.38
4.7731876 -2.7981734 -2.0138147 210.38
40.207783 -23.570904 1.0820873 210.38
5.1162591 -2.9992912 -2.0039322 210.38
40.211151 -23.57288 2.1736758 210.38
5.4962287 -3.2220397 -1.988016 210.38
40.223919 -23.580364 3.2604177 210.38
5.9209957 -3.4710498 -1.9680507 210.38
40.242283 -23.591129 4.3519874 210.38
6.4428573 -3.7769792 -1.9551011 210.38
40.241161 -23.590471 5.4549012 210.38
6.8901882 -4.039217 -1.8924304 210.38
40.264614 -23.604219 6.5595064 210.38
7.6147976 -4.4640031 -1.8761951 210.38
8.2284966 -4.82377 -1.7970862 210.38
9.2125092 -5.4395852 -1.7577106 210.56
10.74594 -6.3450098 -1.7538594 210.56
12.042187 -7.1103868 -1.6354018 210.56
12.661699 -7.4761815 -1.3718281 210.56
3.9379771 -2.3252039 -2.0361238 210.56
19.546329 -11.541257 -1.0585618 210.56
4.1873779 -2.4724641 -2.031179 210.56
31.449127 -18.56934 -0.84793675 210.56
4.4806023 -2.6456003 -2.031846 210.56
39.996243 -23.616039 0 210.56
4.7773199 -2.8207994 -2.0192869 210.56
39.94759 -23.587311 1.0770737 210.56
5.1084428 -3.0163131 -2.0045726 210.56
39.923576 -23.573133 2.1621232 210.56
5.4811473 -3.2363787 -1.9862288 210.56
39.974407 -23.603146 3.2461872 210.56
5.9150281 -3.4925666 -1.9697045 210.56
39.993065 -23.614164 4.3330374 210.56
6.4342918 -3.7991688 -1.9561142 210.56
39.978691 -23.605677 5.4293485 210.56
6.8607068 -4.0509486 -1.8878192 210.56
40.014599 -23.626879 6.5308371 210.56
7.609159 -4.492877 -1.8782742 210.56
8.2302256 -4.8595901 -1.8007892 210.56
9.2074633 -5.4713392 -1.7596561 210.72
10.750314 -6.3881459 -1.7574779 210.72
12.035946 -7.1521053 -1.6372602 210.72
12.555177 -7.4606471 -1.3625389 210.72
3.9330392 -2.3371251 -2.036937 210.72
19.47624 -11.573342 -1.0565121 210.72
4.1741109 -2.480377 -2.0280955 210.72
31.366209 -18.638704 -0.84710115 210.72
4.4763999 -2.6600056 -2.0333011 210.72
39.783993 -23.640795 0 210.72
4.7645774 -2.831249 -2.0172348 210.72
39.697643 -23.589483 1.0721066 210.72
5.0951133 -3.027663 -2.0026519 210.72
39.689281 -23.584513 2.1529927 210.72
5.4786534 -3.2555733 -1.9886118 210.72
39.728245 -23.607666 3.2315383 210.72
5.9118633 -3.5129991 -1.9719096 210.72
39.755775 -23.624025 4.3144588 210.72
6.4219942 -3.8161337 -1.9556077 210.72
39.741844 -23.615747 5.4061179 210.72
6.8727903 -4.0840096 -1.8942748 210.72
39.764584 -23.629259 6.5007753 210.72
7.6049914 -4.519105 -1.8803533 210.72
8.2081757 -4.8775339 -1.7989378 210.72
9.1919222 -5.5012517 -1.7599803 210.89999
10.716597 -6.4137506 -1.7552512 210.89999
12.011713 -7.1888618 -1.637028 210.89999
12.623946 -7.5552759 -1.3725712 210.89999
3.9256775 -2.3494694 -2.036937 210.89999
19.429501 -11.628316 -1.0559531 210.89999
4.1377945 -2.4764187 -2.0142202 210.89999
31.256029 -18.706348 -0.84570849 210.89999
4.4632254 -2.6711853 -2.0311186 210.89999
39.49501 -23.637278 0 210.89999
4.7669477 -2.8529594 -2.0220232 210.89999
39.448341 -23.609346 1.0673716 210.89999
5.1002088 -3.052412 -2.008414 210.89999
39.448708 -23.609564 2.1439557 210.89999
5.4667602 -3.2717886 -1.988016 210.89999
39.465569 -23.619656 3.216192 210.89999
5.9057465 -3.5345163 -1.9735634 210.89999
39.495113 -23.637339 4.2942085 210.89999
6.4215951 -3.8432453 -1.9591532 210.89999
39.481667 -23.62929 5.3807974 210.89999
6.8599257 -4.1055808 -1.8942748 210.89999
39.49472 -23.637102 6.4687657 210.89999
7.5823636 -4.537951 -1.8782742 210.89999
8.2130489 -4.9154086 -1.8033814 210.89999
8.9558058 -5.3960938 -1.717829 211.07001
10.660198 -6.4230323 -1.7491275 211.07001
10.523654 -6.3407612 -1.4367841 211.07001
12.685052 -7.6430564 -1.3816746 211.07001
3.9265141 -2.3658216 -2.0410044 211.07001
19.394913 -11.685913 -1.0559531 211.07001
4.1383319 -2.4934471 -2.0180745 211.07001
31.181551 -18.787653 -0.84519786 211.07001
4.4632587 -2.6892235 -2.0347559 211.07001
39.26025 -23.655268 0 211.07001
4.7439737 -2.8583612 -2.0158668 211.07001
39.189732 -23.61278 1.0622653 211.07001
5.0976214 -3.0714426 -2.0109749 211.07001
39.202229 -23.620308 2.1343594 211.07001
5.4406757 -3.2781413 -1.9820585 211.07001
39.193665 -23.615149 3.1997294 211.07001
5.8886466 -3.5480547 -1.9713584 211.07001
39.250828 -23.649591 4.2752585 211.07001
6.4051919 -3.8592861 -1.9576337 211.07001
39.232727 -23.638685 5.3564057 211.07001
6.8443804 -4.123908 -1.8933526 211.07001
39.251381 -23.649925 6.4403744 211.07001
7.5671906 -4.5594187 -1.8778584 211.07001
8.2287312 -4.9580131 -1.8100469 211.07001
8.5719061 -5.1995134 -1.6471444 211.24001
10.573359 -6.4135475 -1.7379937 211.24001
12.628266 -7.6600046 -1.377959 211.24001
3.9210396 -2.3784089 -2.0418179 211.24001
19.349905 -11.73719 -1.0553942 211.24001
4.1687851 -2.5286856 -2.0365748 211.24001
31.111994 -18.871792 -0.84482652 211.24001
4.4568529 -2.7034206 -2.0354836 211.24001
38.989819 -23.650293 0 211.24001
4.7483273 -2.8802218 -2.0213389 211.24001
38.957092 -23.630442 1.0578551 211.24001
5.082006 -3.0826232 -2.008414 211.24001
38.935535 -23.617367 2.1236453 211.24001
5.4276605 -3.2922893 -1.980867 211.24001
38.968193 -23.637177 3.1870337 211.24001
5.8731623 -3.5625198 -1.9697045 211.24001
39.011929 -23.663704 4.256866 211.24001
6.3722076 -3.8652289 -1.9510492 211.24001
38.973892 -23.640633 5.3306203 211.24001
6.8604012 -4.1613555 -1.9011917 211.24001
38.993073 -23.652267 6.4094782 211.24001
7.5653377 -4.588953 -1.8807691 211.24001
8.220706 -4.9864836 -1.8115281 211.24001
8.5437403 -5.2192154 -1.6448747 211.42
10.659636 -6.5117784 -1.7555295 211.42
12.60074 -7.6975636 -1.3775874 211.42
3.9197848 -2.3945253 -2.0450718 211.42
19.328279 -11.807296 -1.0562326 211.42
4.1623955 -2.5427318 -2.0373456 211.42
31.037195 -18.960058 -0.84440869 211.42
4.4419789 -2.7135241 -2.0325737 211.42
38.754894 -23.674662 0 211.42
4.731236 -2.8902261 -2.0179188 211.42
38.700089 -23.641182 1.052888 211.42
5.0609779 -3.0916595 -2.0039322 211.42
38.683838 -23.631254 2.113956 211.42
5.4124026 -3.3063385 -1.9790798 211.42
38.713268 -23.649233 3.1722455 211.42
5.8619409 -3.5809534 -1.9697045 211.42
38.760662 -23.678183 4.2375441 211.42
6.393055 -3.9054012 -1.9611793 211.42
38.733303 -23.66147 5.3078547 211.42
6.8572588 -4.1889749 -1.9039583 211.42
38.744492 -23.668306 6.3808084 211.42
7.5525532 -4.6137176 -1.8811849 211.42
8.2100315 -5.0153589 -1.812639 211.42
10.680218 -6.5653753 -1.7619314 211.58
11.96278 -7.3537965 -1.6421386 211.58
12.584286 -7.7358499 -1.3781447 211.58
3.9161959 -2.4073758 -2.0466988 211.58
19.281616 -11.852854 -1.0554873 211.58
4.1568503 -2.5553117 -2.0381165 211.58
30.980722 -19.044563 -0.84431589 211.58
4.4407325 -2.7298205 -2.0354836 211.58
38.514843 -23.675961 0 211.58
4.7311521 -2.9083481 -2.0213389 211.58
38.466991 -23.646545 1.0483388 211.58
5.0620098 -3.1117339 -2.0077736 211.58
38.454308 -23.638748 2.1050119 211.58
5.427546 -3.3364375 -1.988016 211.58
38.473713 -23.650677 3.158015 211.58
5.8551941 -3.5993226 -1.9708071 211.58
38.516258 -23.676832 4.2180371 211.58
6.3788276 -3.9212122 -1.9601662 211.58
38.507999 -23.671755 5.2860184 211.58
6.8621135 -4.2182989 -1.9085696 211.58
38.511211 -23.673727 6.3532519 211.58
7.5313067 -4.6296678 -1.8791058 211.58
8.2077141 -5.0454712 -1.8152311 211.58
9.1167068 -5.6437902 -1.7616016 211.75999
10.657855 -6.5978537 -1.7616531 211.75999
11.964953 -7.4070263 -1.6456231 211.75999
12.595477 -7.797358 -1.3820462 211.75999
3.9070601 -2.4187052 -2.0458853 211.75999
19.295246 -11.944918 -1.0582823 211.75999
4.147233 -2.5673869 -2.0373456 211.75999
30.905437 -19.132326 -0.84389806 211.75999
4.4257984 -2.7398355 -2.0325737 211.75999
38.24641 -23.67683 0 211.75999
4.721992 -2.923197 -2.0213389 211.75999
38.224209 -23.663084 1.043743 211.75999
5.0538197 -3.1286185 -2.008414 211.75999
38.194698 -23.644817 2.0948567 211.75999
5.4235306 -3.3574917 -1.990399 211.75999
38.248241 -23.677963 3.1455984 211.75999
5.8520308 -3.6227591 -1.9735634 211.75999
38.282528 -23.699188 4.2005734 211.75999
6.3697677 -3.9432695 -1.9611793 211.75999
38.25103 -23.679689 5.2609296 211.75999
6.8686838 -4.2521286 -1.914103 211.75999
38.274986 -23.694519 6.3265309 211.75999
7.5250421 -4.6584539 -1.8811849 211.75999
8.191823 -5.0712314 -1.8152311 211.75999
9.0482912 -5.6342564 -1.7512258 211.91
9.0248775 -5.6196771 -1.4941624 211.91
11.965756 -7.4509254 -1.6484107 211.91
12.595305 -7.8429375 -1.3842757 211.91
3.8976126 -2.4269941 -2.0442584 211.91
4.1404977 -2.5782354 -2.0373456 211.91
30.806023 -19.18252 -0.84255183 211.91
4.4249363 -2.7553518 -2.0354836 211.91
38.036591 -23.684904 0 211.91
4.7159181 -2.9365425 -2.0220232 211.91
37.994095 -23.658442 1.0391473 211.91
5.050437 -3.1448433 -2.0103347 211.91
37.964771 -23.640182 2.0856333 211.91
5.4082394 -3.3676424 -1.988016 211.91
38.021843 -23.67572 3.1320658 211.91
5.8180466 -3.622824 -1.9652944 211.91
38.042858 -23.688808 4.181066 211.91
6.3725615 -3.9681137 -1.9652313 211.91
38.032085 -23.682098 5.2393255 211.91
6.849268 -4.2649527 -1.9117974 211.91
38.036293 -23.684719 6.2973046 211.91
7.5078382 -4.675036 -1.8799375 211.91
8.1935339 -5.1020103 -1.8185638 211.91
8.3273888 -5.2237611 -1.6150446 212.10001
11.952762 -7.4979534 -1.6500368 212.10001
12.624896 -7.9195824 -1.3904065 212.10001
3.8879952 -2.4389348 -2.0434449 212.10001
12.82335 -8.0440722 -0.70592523 212.10001
4.1303616 -2.590971 -2.0365748 212.10001
30.713448 -19.266508 -0.84176266 212.10001
4.4141965 -2.7690203 -2.0347559 212.10001
37.795193 -23.708879 0 212.10001
4.70297 -2.9501677 -2.0206549 212.10001
37.730808 -23.668491 1.0340873 212.10001
5.0415859 -3.1625807 -2.0109749 212.10001
37.730469 -23.668278 2.0770619 212.10001
5.4067464 -3.3916454 -1.9915905 212.10001
37.784248 -23.702015 3.1189516 212.10001
5.8206582 -3.6512921 -1.9702559 212.10001
37.810585 -23.718536 4.1641598 212.10001
6.364285 -3.9923084 -1.9667507 212.10001
37.783382 -23.701471 5.2158632 212.10001
6.8598166 -4.3031545 -1.9187142 212.10001
37.789768 -23.705477 6.2694697 212.10001
7.4790363 -4.6915908 -1.8766109 212.10001
8.1682453 -5.1239309 -1.8167124 212.10001
8.3010864 -5.2396212 -1.6127748 212.25999
9.010478 -5.687387 -1.4975026 212.25999
11.935137 -7.5334229 -1.6505014 212.25999
12.606099 -7.9569325 -1.3907781 212.25999
3.8873494 -2.4536834 -2.0466988 212.25999
12.702849 -8.0180006 -0.70052159 212.25999
4.1293526 -2.6064353 -2.0396583 212.25999
30.656143 -19.350067 -0.84166986 212.25999
4.4111729 -2.7843194 -2.0369384 212.25999
37.583389 -23.722523 0 212.25999
4.6947136 -2.9632893 -2.0206549 212.25999
37.502247 -23.671309 1.0296309 212.25999
5.0279279 -3.1736131 -2.0090542 212.25999
37.502041 -23.671177 2.0681179 212.25999
5.397254 -3.4067307 -1.9915905 212.25999
37.567757 -23.712658 3.1065347 212.25999
5.8266969 -3.6777937 -1.9757686 212.25999
37.572441 -23.715614 4.1452098 212.25999
6.3563838 -4.0121307 -1.9677638 212.25999
37.552425 -23.70298 5.1930976 212.25999
6.8527102 -4.3254104 -1.9200975 212.25999
37.564316 -23.710484 6.2430267 212.25999
7.4625974 -4.7103696 -1.8757793 212.25999
8.1738491 -5.1593094 -1.821156 212.25999
11.920147 -7.5793552 -1.6518953 212.45
12.589726 -8.0051031 -1.3918928 212.45
14.002575 -8.9034548 -1.1603292 212.45
3.8745658 -2.4636199 -2.0442584 212.45
12.746998 -8.1051035 -0.70443457 212.45
4.1222439 -2.6211045 -2.0404291 212.45
30.558062 -19.430164 -0.8407414 212.45
4.4113483 -2.8049297 -2.0413034 212.45
37.330681 -23.736492 0 212.45
4.6975484 -2.9869084 -2.0261273 212.45
37.261566 -23.692549 1.0251744 212.45
5.0237718 -3.1943355 -2.011615 212.45
37.264866 -23.694645 2.05936 212.45
5.3794827 -3.4205122 -1.9892075 212.45
37.371063 -23.762171 3.0967689 212.45
5.8128462 -3.696064 -1.9752173 212.45
37.323868 -23.732161 4.1264458 212.45
6.3299823 -4.0248818 -1.9637117 212.45
37.305988 -23.720791 5.1698675 212.45
6.8498244 -4.3554206 -1.9233253 212.45
37.32671 -23.733967 6.2165842 212.45
7.4617934 -4.7445374 -1.8795217 212.45
37.296478 -23.714746 7.2613778 212.45
8.1799154 -5.2011509 -1.8263403 212.45
9.0010509 -5.7608399 -1.7557652 212.62
8.9862423 -5.7513623 -1.499451 212.62
11.916011 -7.6264687 -1.6544505 212.62
12.579337 -8.0510101 -1.393379 212.62
14.001302 -8.9610939 -1.1624218 212.62
3.8749337 -2.4800296 -2.0483258 212.62
12.704384 -8.1310425 -0.70340973 212.62
4.109786 -2.6303394 -2.0381165 212.62
14.609348 -9.350255 -0.40270728 212.62
4.399868 -2.8159976 -2.0398483 212.62
37.110165 -23.751196 0 212.62
4.6949973 -3.0048857 -2.0288634 212.62
37.029434 -23.699528 1.0207179 212.62
5.0142717 -3.2092273 -2.011615 212.62
37.034542 -23.702795 2.0505092 212.62
5.3741341 -3.4395461 -1.9909948 212.62
37.149158 -23.776154 3.0842128 212.62
5.8067122 -3.716404 -1.9768711 212.62
37.109047 -23.750481 4.1104679 212.62
6.3294196 -4.0509467 -1.9672573 212.62
37.076496 -23.729647 5.147799 212.62
6.8270369 -4.3694305 -1.9205587 212.62
37.085976 -23.735714 6.1881928 212.62
7.4427404 -4.7634926 -1.8782742 212.62
37.076351 -23.729553 7.2321963 212.62
8.1661024 -5.2264576 -1.8267106 212.62
9.0270538 -5.81531 -1.7641954 212.78999
11.90335 -7.6682453 -1.6558443 212.78999
12.560416 -8.0915337 -1.3939364 212.78999
12.720087 -8.1943951 -1.0580662 212.78999
3.8675582 -2.4915159 -2.0483258 212.78999
12.779293 -8.2325363 -0.70890659 212.78999
4.1143746 -2.6505175 -2.0442834 212.78999
14.554647 -9.376235 -0.40196455 212.78999
4.3899274 -2.8280308 -2.0391209 212.78999
36.873077 -23.753971 0 212.78999
4.6844811 -3.0177848 -2.0281794 212.78999
36.834572 -23.729162 1.0172827 212.78999
5.0047278 -3.2240908 -2.011615 212.78999
36.809536 -23.713036 2.0419378 212.78999
5.3590903 -3.4523745 -1.9892075 212.78999
36.925823 -23.787949 3.071517 212.78999
5.7827301 -3.7252872 -1.9724609 212.78999
36.886074 -23.762342 4.0935616 212.78999
6.3238788 -4.0738997 -1.9692832 212.78999
36.858971 -23.744881 5.1273565 212.78999
6.8042264 -4.3833442 -1.917792 212.78999
36.855549 -23.742678 6.1614714 212.78999
7.4104834 -4.7739005 -1.8737001 212.78999
36.831577 -23.727234 7.1981511 212.78999
8.1356888 -5.2410841 -1.8233778 212.78999
9.024663 -5.8517313 -1.7671136 212.96001
10.578828 -6.8594761 -1.7719519 212.96001
11.887212 -7.7078524 -1.6567736 212.96001
12.578124 -8.1558504 -1.398581 212.96001
12.668934 -8.2147331 -1.0558339 212.96001
3.8586156 -2.5019863 -2.0475123 212.96001
12.674349 -8.2182446 -0.70443457 212.96001
4.1018472 -2.6597011 -2.0419707 212.96001
14.525085 -9.4182911 -0.40191811 212.96001
4.3846436 -2.8430707 -2.040576 212.96001
14.586056 -9.4578247 0 212.96001
4.6739297 -3.0306482 -2.0274954 212.96001
14.560316 -9.4411345 0.40289298 212.96001
4.9951396 -3.2389259 -2.011615 212.96001
14.558487 -9.4399481 0.80915409 212.96001
5.3392119 -3.4620275 -1.985633 212.96001
36.739571 -23.822508 3.0618906 212.96001
5.7700386 -3.7413824 -1.9719096 212.96001
36.653336 -23.76659 4.0755405 212.96001
6.2987761 -4.0842242 -1.9652313 212.96001
36.630013 -23.751469 5.1052876 212.96001
6.7960892 -4.4066896 -1.9191753 212.96001
36.632057 -23.752794 6.1358638 212.96001
7.4127007 -4.80651 -1.8778584 212.96001
36.61364 -23.74085 7.1692934 212.96001
8.1695747 -5.2972789 -1.834487 212.96001
9.0039558 -5.8763251 -1.7664652 213.13
10.53355 -6.8745971 -1.7677767 213.13
11.875935 -7.7506881 -1.6583997 213.13
12.602231 -8.2246971 -1.4039687 213.13
12.607747 -8.2282972 -1.0527647 213.13
3.8343444 -2.5024395 -2.038564 213.13
12.643217 -8.2514458 -0.70406193 213.13
4.1047559 -2.6789203 -2.0473666 213.13
14.471961 -9.4449539 -0.40122178 213.13
3.4042222 -2.2217255 -1.587357 213.13
14.537831 -9.4879436 0 213.13
4.6664906 -3.0455298 -2.0281794 213.13
14.530565 -9.483202 0.40284654 213.13
4.9870944 -3.2547681 -2.0122554 213.13
5.3417068 -3.4862018 -1.990399 213.13
5.7685723 -3.7647903 -1.9752173 213.13
14.535007 -9.4861002 1.6192923 213.13
6.2898707 -4.1050096 -1.9662442 213.13
14.52261 -9.4780092 2.0279913 213.13
6.7813549 -4.4257708 -1.9187142 213.13
14.510791 -9.4702959 2.435251 213.13
7.3967686 -4.8274136 -1.8774426 213.13
14.4926 -9.4584246 2.8432696 213.13
8.1735725 -5.3343854 -1.8389306 213.13
14.498792 -9.4624653 3.2620096 213.13
8.9990587 -5.9090285 -1.7687348 213.28999
10.577222 -6.9452939 -1.7783539 213.28999
11.882473 -7.8023572 -1.6623487 213.28999
12.599189 -8.2729731 -1.4061981 213.28999
12.803193 -8.4069271 -1.0710409 213.28999
3.8395596 -2.5211601 -2.0450718 213.28999
12.745375 -8.3689623 -0.71104944 213.28999
4.0864601 -2.6832819 -2.0419707 213.28999
14.445529 -9.4853306 -0.40122178 213.28999
36.211327 -23.777349 0 213.28999
4.6548257 -3.0564861 -2.0268114 213.28999
14.549153 -9.5533733 0.40409994 213.28999
4.9779859 -3.268682 -2.0122554 213.28999
14.517236 -9.5324144 0.80989945 213.28999
5.3303547 -3.5000572 -1.9898033 213.28999
14.485937 -9.5118628 1.2118095 213.28999
5.7628574 -3.7840502 -1.9768711 213.28999
14.50846 -9.5266523 1.6192923 213.28999
6.2751484 -4.1204343 -1.9652313 213.28999
14.494425 -9.517437 2.0277588 213.28999
6.7868638 -4.4564404 -1.9237865 213.28999
14.464422 -9.497736 2.4319108 213.28999
7.4045177 -4.8620095 -1.8828483 213.28999
14.480978 -9.5086069 2.8461878 213.28999
8.1602869 -5.3582683 -1.8393009 213.28999
8.9903278 -5.9438014 -1.7706803 213.47
10.081194 -6.6650085 -1.6984686 213.47
11.854589 -7.8374577 -1.6618842 213.47
12.583103 -8.3191032 -1.4073129 213.47
12.720133 -8.4096975 -1.0662974 213.47
3.8361924 -2.5362327 -2.0475123 213.47
12.660691 -8.3703985 -0.70778859 213.47
4.084168 -2.7001777 -2.0450542 213.47
14.449018 -9.5527201 -0.40215021 213.47
3.2650988 -2.1586642 -1.5284313 213.47
35.991302 -23.795031 0 213.47
3.3580897 -2.2201433 -1.4652143 213.47
35.944912 -23.764362 1.0004317 213.47
4.9740148 -3.2884843 -2.0148163 213.47
35.923897 -23.750469 2.0083046 213.47
5.3209252 -3.5178385 -1.990399 213.47
36.06007 -23.840498 3.0228271 213.47
5.7333002 -3.7904732 -1.9708071 213.47
35.955284 -23.771219 4.0212917 213.47
6.2670145 -4.1433291 -1.9667507 213.47
35.94323 -23.76325 5.0388494 213.47
6.7841935 -4.4852533 -1.9270144 213.47
35.961548 -23.77536 6.0587616 213.47
7.3712559 -4.8733792 -1.8782742 213.47
35.961311 -23.775206 7.0827212 213.47
8.1466923 -5.3860459 -1.8400415 213.47
8.9890833 -5.9813828 -1.7739227 213.64
10.669806 -7.0997438 -1.8011782 213.64
11.831282 -7.8725963 -1.6618842 213.64
12.566654 -8.3619165 -1.4082417 213.64
12.635328 -8.4076128 -1.061275 213.64
3.8286505 -2.5476038 -2.0475123 213.64
12.850361 -8.5506964 -0.71980709 213.64
14.450573 -9.6154861 -0.40298581 213.64
4.3521442 -2.8959394 -2.0413034 213.64
35.775681 -23.805323 0 213.64
35.734413 -23.777864 0.99653226 213.64
4.9673905 -3.3053274 -2.0160968 213.64
35.701916 -23.756239 1.9998266 213.64
5.3184118 -3.5388987 -1.9933778 213.64
35.82972 -23.841282 3.0094337 213.64
5.7188272 -3.8053374 -1.9697045 213.64
35.776833 -23.806091 4.0092158 213.64
6.2724123 -4.1736956 -1.9723223 213.64
35.746876 -23.786158 5.0211945 213.64
6.7643747 -4.50105 -1.9251698 213.64
35.744095 -23.784307 6.033989 213.64
7.3958526 -4.9212384 -1.8882539 213.64
35.744381 -23.784496 7.0538635 213.64
8.151948 -5.4243484 -1.8448554 213.64
8.9522123 -5.9975104 -1.7703561 213.82001
10.667193 -7.1464572 -1.8045185 213.82001
11.837848 -7.9307337 -1.6662979 213.82001
12.548594 -8.4068966 -1.4091706 213.82001
12.794497 -8.5716381 -1.0769005 213.82001
3.8251817 -2.5626702 -2.0499527 213.82001
12.85829 -8.6143761 -0.72176361 213.82001
12.759161 -8.547965 -0.35656422 213.82001
3.333883 -2.2335258 -1.5669876 213.82001
35.517944 -23.795149 0 213.82001
35.500069 -23.783175 0.9920758 213.82001
4.9617043 -3.3240805 -2.0180175 213.82001
35.479385 -23.769318 1.9915347 213.82001
5.3025093 -3.5524018 -1.9915905 213.82001
35.610439 -23.857115 2.9972961 213.82001
5.7068443 -3.8232849 -1.9697045 213.82001
35.561245 -23.82416 3.9934242 213.82001
6.2560544 -4.1912265 -1.9713093 213.82001
35.523445 -23.798834 5.0002875 213.82001
6.7679863 -4.534194 -1.9302422 213.82001
35.526051 -23.800579 6.0097728 213.82001
7.3787303 -4.9433603 -1.8878381 213.82001
35.515362 -23.793419 7.023385 213.82001
8.1381321 -5.4521194 -1.8455961 213.82001
8.5694761 -5.7780085 -1.6980503 213.99001
10.662364 -7.1891479 -1.8073019 213.99001
10.989094 -7.4094472 -1.549915 213.99001
12.543408 -8.4574509 -1.4114001 213.99001
12.623436 -8.5114098 -1.0646234 213.99001
3.8175614 -2.5740085 -2.0499527 213.99001
12.753163 -8.5988789 -0.71729159 213.99001
3.1964884 -2.155247 -1.6102971 213.99001
29.925373 -20.17732 -0.83795613 213.99001
3.3195179 -2.2382002 -1.5633503 213.99001
35.351006 -23.835579 0 213.99001
35.283459 -23.790035 0.98799068 213.99001
4.9533911 -3.3398466 -2.0186577 213.99001
35.271217 -23.78178 1.9838018 213.99001
5.2966948 -3.571321 -1.9933778 213.99001
35.403851 -23.871208 2.9858561 213.99001
5.7098217 -3.8498735 -1.974666 213.99001
35.345104 -23.831598 3.9770753 213.99001
6.2403827 -4.2076068 -1.9702963 213.99001
35.306087 -23.805292 4.9796128 213.99001
6.7593441 -4.557519 -1.9316255 213.99001
35.30584 -23.805126 5.9844432 213.99001
7.3770065 -4.9739809 -1.8911648 213.99001
35.305519 -23.804911 6.9958243 213.99001
8.1268082 -5.479538 -1.846707 213.99001
8.3916159 -5.6922374 -1.6659504 214.14999
10.630774 -7.2111125 -1.8053535 214.14999
12.499967 -8.4790316 -1.4091706 214.14999
12.695382 -8.6115866 -1.072715 214.14999
3.8103585 -2.5846589 -2.0499527 214.14999
12.757208 -8.6535244 -0.71887547 214.14999
3.1843483 -2.1600208 -1.6072137 214.14999
29.829199 -20.233871 -0.836842 214.14999
3.3086295 -2.244324 -1.5611678 214.14999
35.113827 -23.818563 0 214.14999
4.6006494 -3.1207323 -2.0233912 214.14999
35.082855 -23.797556 0.98423052 214.14999
4.9487491 -3.3568571 -2.0205784 214.14999
35.065788 -23.785978 1.9759758 214.14999
5.275641 -3.5785959 -1.9892075 214.14999
35.193401 -23.872541 2.9737184 214.14999
5.6879115 -3.8582487 -1.9708071 214.14999
35.136688 -23.834072 3.961098 214.14999
6.2350135 -4.2293615 -1.9723223 214.14999
35.084942 -23.798971 4.9577765 214.14999
6.7643065 -4.5883937 -1.9366978 214.14999
35.094994 -23.805788 5.959949 214.14999
7.3711829 -5.0000529 -1.8932439 214.14999
35.095181 -23.805916 6.9672914 214.14999
8.1277399 -5.5132442 -1.85041 214.14999
8.4003963 -5.7389593 -1.6714625 214.34
10.598625 -7.2407393 -1.8039618 214.34
10.636905 -7.266891 -1.5064746 214.34
12.458626 -8.5114498 -1.4076843 214.34
12.778778 -8.7301702 -1.082202 214.34
3.7987492 -2.5952189 -2.0483258 214.34
12.627815 -8.6270361 -0.71319228 214.34
3.2213588 -2.2007589 -1.6295682 214.34
29.755333 -20.328165 -0.83665627 214.34
3.3103986 -2.2615891 -1.5655327 214.34
34.889324 -23.835592 0 214.34
4.6120005 -3.1508138 -2.0329678 214.34
34.863415 -23.817892 0.98028469 214.34
4.9438481 -3.3775246 -2.0231395 214.34
34.8465 -23.806335 1.9680566 214.34
5.2637453 -3.5960708 -1.9892075 214.34
34.977314 -23.895704 2.9621389 214.34
5.6607985 -3.8673289 -1.9658456 214.34
34.916054 -23.853851 3.9451206 214.34
6.2065759 -4.2401915 -1.9677638 214.34
34.876251 -23.826662 4.9394245 214.34
6.7426262 -4.6064086 -1.9348533 214.34
34.889935 -23.83601 5.9385161 214.34
7.3271012 -5.0057087 -1.8861749 214.34
34.872643 -23.824196 6.9387579 214.34
8.1191502 -5.5468183 -1.8526318 214.34
8.3892164 -5.765749 -1.6724353 214.5
10.578364 -7.270308 -1.8039618 214.5
10.724618 -7.3708258 -1.5218065 214.5
12.503736 -8.5935802 -1.4154873 214.5
12.662271 -8.7025385 -1.0743892 214.5
3.7914872 -2.6058171 -2.0483258 214.5
12.626725 -8.6781073 -0.71449661 214.5
3.2075958 -2.2045195 -1.6257139 214.5
29.668789 -20.390793 -0.83582073 214.5
3.285646 -2.2581618 -1.556803 214.5
34.713844 -23.858164 0 214.5
34.66824 -23.82682 0.97666383 214.5
4.9328356 -3.390244 -2.0224991 214.5
34.636642 -23.805105 1.959951 214.5
5.2489619 -3.6075118 -1.9874203 214.5
34.764111 -23.89271 2.9497223 214.5
5.6404705 -3.8765881 -1.962538 214.5
34.718014 -23.861029 3.9302578 214.5
6.1994944 -4.2607946 -1.9692832 214.5
34.672062 -23.829449 4.9199114 214.5
6.732944 -4.6274242 -1.9357755 214.5
34.684498 -23.837996 5.9148569 214.5
7.3211551 -5.0316906 -1.8882539 214.5
34.67749 -23.833178 6.9131432 214.5
8.087431 -5.5583377 -1.8489288 214.5
8.9125729 -6.1644564 -1.7804075 214.67
10.560004 -7.303916 -1.8045185 214.67
10.581803 -7.318994 -1.5046161 214.67
12.538781 -8.672554 -1.4223613 214.67
12.670854 -8.7639027 -1.077319 214.67
2.9903259 -2.0682843 -1.6188118 214.67
18.613018 -12.873852 -1.0553942 214.67
3.2632706 -2.2570689 -1.6573187 214.67
29.580202 -20.459396 -0.83503157 214.67
34.4669 -23.839323 0 214.67
3.0341804 -2.0986166 -1.3427711 214.67
34.451035 -23.82835 0.97253227 214.67
4.9024968 -3.3908532 -2.0141761 214.67
34.43441 -23.816853 1.9524977 214.67
5.2429461 -3.626328 -1.9892075 214.67
34.555233 -23.900419 2.9380031 214.67
5.6526613 -3.9097109 -1.9708071 214.67
34.499664 -23.861984 3.9135373 214.67
6.1645474 -4.2637615 -1.9621922 214.67
34.467239 -23.839558 4.9008627 214.67
6.7319889 -4.6562371 -1.9394644 214.67
34.475163 -23.845037 5.8911972 214.67
7.3174562 -5.0611806 -1.8911648 214.67
34.476772 -23.846151 6.8872037 214.67
8.0806026 -5.5890169 -1.8511506 214.67
8.8926229 -6.1897459 -1.7800833 214.84
9.4117966 -6.5511184 -1.6116245 214.84
11.742075 -8.1731176 -1.6730347 214.84
12.539145 -8.7279215 -1.4253339 214.84
12.60222 -8.7718248 -1.0736916 214.84
3.074151 -2.139775 -1.6676202 214.84
18.574738 -12.929021 -1.0553942 214.84
3.2595887 -2.2688498 -1.6588603 214.84
29.504599 -20.536793 -0.83461374 214.84
34.292599 -23.869501 0 214.84
4.5997543 -3.2016773 -2.039808 214.84
34.242336 -23.834513 0.96863288 214.84
4.8955245 -3.4075491 -2.0154567 214.84
34.234055 -23.828751 1.9451376 214.84
5.2180605 -3.6320517 -1.9838458 214.84
34.349892 -23.909378 2.926563 214.84
5.6583929 -3.9385469 -1.9768711 214.84
34.306133 -23.87892 3.8996034 214.84
6.1264615 -4.264348 -1.9540882 214.84
34.256142 -23.844124 4.8808846 214.84
6.7085605 -4.6695204 -1.9366978 214.84
34.261215 -23.847654 5.866703 214.84
7.2815337 -5.0683408 -1.885759 214.84
34.256847 -23.844614 6.8573737 214.84
8.0688229 -5.6163363 -1.8522615 214.84
8.8650522 -6.2119894 -1.7784621 215.02
11.740743 -8.2270651 -1.6765192 215.02
12.532864 -8.7821274 -1.427749 215.02
3.2694142 -2.2909696 -1.7774391 215.02
18.576569 -13.017119 -1.0578165 215.02
3.1632748 -2.2165947 -1.6133804 215.02
29.380985 -20.588076 -0.83294255 215.02
3.0102232 -2.1093473 -1.4353142 215.02
34.065117 -23.870378 0 215.02
4.5896735 -3.2161121 -2.039808 215.02
34.042843 -23.854767 0.96510482 215.02
4.908071 -3.4392221 -2.0250602 215.02
34.018322 -23.837585 1.9371252 215.02
5.2144423 -3.6539049 -1.9868245 215.02
34.142262 -23.924435 2.9152625 215.02
5.6412687 -3.9529941 -1.9752173 215.02
34.089062 -23.887157 3.8834403 215.02
6.124126 -4.2913461 -1.9576337 215.02
34.054173 -23.862707 4.8627653 215.02
6.6970453 -4.6928062 -1.93762 215.02
34.061237 -23.867657 5.8452702 215.02
7.2463498 -5.0777192 -1.8807691 215.02
34.047619 -23.858116 6.8304615 215.02
8.0817213 -5.6630874 -1.8592974 215.02
8.8632326 -6.2523232 -1.7820287 215.2
9.4529867 -6.6683488 -1.6258202 215.2
11.706722 -8.2581844 -1.6753577 215.2
12.526366 -8.8363791 -1.4301642 215.2
13.800564 -9.7352266 -1.1809771 215.2
3.2233827 -2.2738464 -1.7562888 215.2
12.697706 -8.9572468 -0.72465181 215.2
3.0296214 -2.1371629 -1.5486294 215.2
29.258978 -20.639938 -0.83131784 215.2
33.882095 -23.90119 0 215.2
3.1113892 -2.1948435 -1.3858656 215.2
33.830486 -23.864784 0.96120542 215.2
4.9034352 -3.458993 -2.027621 215.2
33.817562 -23.855665 1.9299514 215.2
5.1998172 -3.6680675 -1.985633 215.2
33.928356 -23.933823 2.903404 215.2
5.62568 -3.9684808 -1.9741148 215.2
33.880421 -23.900007 3.868206 215.2
6.1280055 -4.3228321 -1.9632052 215.2
33.850803 -23.879114 4.8444133 215.2
6.6790886 -4.7115788 -1.9366978 215.2
33.843666 -23.874081 5.820776 215.2
7.1728134 -5.0598631 -1.8657995 215.2
33.84671 -23.876228 6.8051705 215.2
8.0590725 -5.68505 -1.8581865 215.2
8.8355665 -6.2675128 -1.779759 215.35001
11.689923 -8.2922516 -1.6760546 215.35001
12.512935 -8.8760557 -1.4312789 215.35001
3.130985 -2.2209656 -1.7091074 215.35001
18.512693 -13.131988 -1.0584686 215.35001
3.1745393 -2.2518609 -1.6257139 215.35001
29.152655 -20.679449 -0.82983232 215.35001
3.1059105 -2.2031791 -1.4869651 215.35001
33.679119 -23.890297 0 215.35001
4.571074 -3.2424932 -2.039808 215.35001
33.630905 -23.856096 0.95730603 215.35001
4.8989992 -3.475107 -2.0295417 215.35001
33.619743 -23.848179 1.9222186 215.35001
5.1901965 -3.681668 -1.985633 215.35001
33.745159 -23.937145 2.89308 215.35001
5.634088 -3.9965429 -1.9807301 215.35001
33.692669 -23.89991 3.8539007 215.35001
6.1214013 -4.3422189 -1.9647248 215.35001
33.642349 -23.864216 4.8235064 215.35001
6.6794295 -4.7380562 -1.9403868 215.35001
33.656666 -23.874369 5.7993431 215.35001
7.1611376 -5.0797563 -1.8662153 215.35001
33.648876 -23.868843 6.7779346 215.35001
8.0505733 -5.7106776 -1.8596677 215.35001
8.7713747 -6.2658043 -1.7710046 215.53999
9.2246943 -6.5896325 -1.5932536 215.53999
11.670443 -8.3367453 -1.6772161 215.53999
12.483432 -8.9175014 -1.4312789 215.53999
3.1042755 -2.2175298 -1.6985322 215.53999
18.465794 -13.190983 -1.0582823 215.53999
3.0379095 -2.1701214 -1.5594213 215.53999
29.012333 -20.724871 -0.82778978 215.53999
3.0227904 -2.1593211 -1.4505912 215.53999
33.451614 -23.896057 0 215.53999
33.442604 -23.88962 0.95419574 215.53999
4.8889899 -3.492435 -2.0301819 215.53999
33.420177 -23.8736 1.9153242 215.53999
5.177959 -3.698859 -1.985633 215.53999
33.538967 -23.958458 2.8821981 215.53999
5.6223683 -4.0163217 -1.9812813 215.53999
33.478737 -23.915432 3.8384805 215.53999
6.1195636 -4.3714914 -1.9687768 215.53999
33.44503 -23.891356 4.8065481 215.53999
6.6668482 -4.7624426 -1.941309 215.53999
33.459663 -23.901808 5.7790236 215.53999
7.160172 -5.1148467 -1.8703736 215.53999
33.444279 -23.890818 6.7526436 215.53999
8.0251951 -5.7327733 -1.8581865 215.53999
8.782691 -6.3110037 -1.7768408 215.7
9.330101 -6.7043576 -1.6146864 215.7
11.648729 -8.3704615 -1.6774484 215.7
12.460098 -8.9534883 -1.4314647 215.7
12.619821 -9.0682611 -1.0866663 215.7
3.0921359 -2.221925 -1.6952783 215.7
18.415907 -13.233171 -1.057537 215.7
2.9269297 -2.1032124 -1.5054621 215.7
28.866663 -20.742802 -0.82528299 215.7
3.080291 -2.2134137 -1.4811453 215.7
12.588919 -9.0460558 0 215.7
33.242615 -23.887241 0.95038921 215.7
4.8853731 -3.5104966 -2.032743 215.7
33.228455 -23.877066 1.9081503 215.7
5.1552062 -3.7043915 -1.980867 215.7
33.337456 -23.955391 2.8706183 215.7
5.6033249 -4.0263972 -1.9785249 215.7
33.284069 -23.917028 3.8238037 215.7
6.1057611 -4.3874345 -1.9682703 215.7
33.245903 -23.889605 4.7874994 215.7
6.6377187 -4.7696848 -1.9366978 215.7
33.257683 -23.898069 5.7556429 215.7
7.137917 -5.1291137 -1.8682945 215.7
33.257233 -23.897745 6.7283258 215.7
8.0155392 -5.7597489 -1.8596677 215.7
8.796402 -6.3628545 -1.7836499 215.88
9.3699722 -6.7777452 -1.6252635 215.88
11.612719 -8.4000301 -1.6760546 215.88
12.438362 -8.9972572 -1.4322078 215.88
12.610668 -9.1218948 -1.0883405 215.88
2.9681892 -2.147032 -1.631014 215.88
12.585651 -9.1037989 -0.72437227 215.88
2.9277844 -2.1178052 -1.5093163 215.88
12.574875 -9.0960035 -0.36032438 215.88
3.1427588 -2.2733064 -1.5146092 215.88
12.563679 -9.0879049 0 215.88
12.563534 -9.0878 0.35999942 215.88
4.8758554 -3.5269377 -2.0333831 215.88
33.023781 -23.887667 1.900697 215.88
5.1713877 -3.74071 -1.9915905 215.88
33.137558 -23.969967 2.8598759 215.88
5.5984364 -4.0496144 -1.9812813 215.88
33.095821 -23.939777 3.8107986 215.88
6.0825415 -4.3997908 -1.9652313 215.88
33.049973 -23.906614 4.7700768 215.88
6.6353164 -4.7996387 -1.9403868 215.88
33.055668 -23.910734 5.7336535 215.88
7.0932369 -5.1308746 -1.8608097 215.88
33.054066 -23.909575 6.7023864 215.88
8.002182 -5.7883577 -1.8607786 215.88
8.1807232 -5.9545579 -1.6623838 216.05
9.3434153 -6.8008542 -1.62415 216.05
11.595775 -8.4402943 -1.6772161 216.05
12.410003 -9.0329514 -1.4320221 216.05
12.586774 -9.1616192 -1.0886195 216.05
2.9662373 -2.159055 -1.6334543 216.05
18.3638 -13.366583 -1.059214 216.05
2.9393928 -2.1395154 -1.5185664 216.05
12.565613 -9.1462164 -0.36083502 216.05
12.588404 -9.1628056 0 216.05
2.9159014 -2.1224165 -1.3126733 216.05
12.586629 -9.1615133 0.36143848 216.05
4.8669014 -3.5425041 -2.0340233 216.05
32.831615 -23.897366 1.8937094 216.05
5.1510043 -3.7492962 -1.988016 216.05
32.938858 -23.975428 2.8488543 216.05
5.5910592 -4.069602 -1.9829352 216.05
32.891014 -23.940603 3.7953787 216.05
6.0819745 -4.4269276 -1.9692832 216.05
32.847198 -23.90871 4.7510281 216.05
6.6210461 -4.8193049 -1.9403868 216.05
32.85968 -23.917795 5.7119422 216.05
7.0637469 -5.1415367 -1.8570672 216.05
32.856926 -23.915791 6.6767712 216.05
8.0024519 -5.8247981 -1.864852 216.05
10.304249 -7.5470948 -1.7950547 216.22
11.60113 -8.4969635 -1.6816298 216.22
12.370295 -9.0603199 -1.4305358 216.22
12.570803 -9.2071772 -1.0895962 216.22
3.0320449 -2.2207472 -1.6733146 216.22
12.579761 -9.2137375 -0.72716731 216.22
2.9583421 -2.1667655 -1.5316708 216.22
12.591652 -9.2224474 -0.36236691 216.22
3.0856268 -2.2599919 -1.4935124 216.22
2.9323342 -2.1477165 -1.3229339 216.22
32.624413 -23.894953 0.93887663 216.22
4.8594265 -3.5591681 -2.0353038 216.22
32.621952 -23.893152 1.8856971 216.22
5.1460185 -3.7690754 -1.990399 216.22
32.742031 -23.9811 2.8379724 216.22
5.574307 -4.0827651 -1.9812813 216.22
32.705772 -23.954544 3.7821879 216.22
6.0891047 -4.4598155 -1.9758679 216.22
32.657524 -23.919205 4.7338381 216.22
6.6082878 -4.8400788 -1.9408479 216.22
32.662342 -23.922735 5.6899529 216.22
7.0989647 -5.1994634 -1.8703736 216.22
32.661633 -23.922215 6.6514807 216.22
7.9994049 -5.8589683 -1.8681847 216.22
8.7414694 -6.444767 -1.7842984 216.39999
10.299618 -7.593533 -1.7983948 216.39999
11.5424 -8.5097914 -1.6769838 216.39999
12.442747 -9.1735849 -1.4422402 216.39999
2.983876 -2.1999032 -1.6505373 216.39999
18.199797 -13.418048 -1.0544624 216.39999
2.9871705 -2.202332 -1.5501711 216.39999
28.210365 -20.798475 -0.81372404 216.39999
2.9330583 -2.1624372 -1.422947 216.39999
32.482296 -23.948013 0 216.39999
4.5214767 -3.3335202 -2.0445964 216.39999
32.426872 -23.907152 0.93534857 216.39999
4.8512712 -3.5766656 -2.0365844 216.39999
32.437382 -23.914902 1.8793617 216.39999
5.1249318 -3.7784257 -1.9868245 216.39999
32.550907 -23.9986 2.8279274 216.39999
5.5614533 -4.1002569 -1.9812813 216.39999
32.510143 -23.968546 3.7682543 216.39999
6.0657196 -4.4720345 -1.9728287 216.39999
32.454308 -23.92738 4.7152538 216.39999
6.5914836 -4.8596606 -1.9403868 216.39999
32.465874 -23.935905 5.6687989 216.39999
7.1455798 -5.2681756 -1.8870065 216.39999
32.476711 -23.943897 6.629108 216.39999
7.9793768 -5.8829041 -1.8678143 216.39999
8.7440462 -6.4844351 -1.7885135 216.56
10.276781 -7.6210856 -1.7981164 216.56
11.520187 -8.5431738 -1.6772161 216.56
12.500257 -9.2699766 -1.451901 216.56
13.735488 -10.186004 -1.1957655 216.56
3.1523633 -2.3377388 -1.7473406 216.56
18.203978 -13.49976 -1.0568848 216.56
2.9409852 -2.1809845 -1.5293583 216.56
28.057419 -20.806902 -0.81098515 216.56
2.8970797 -2.1484249 -1.4083974 216.56
32.323723 -23.97072 0 216.56
4.5166788 -3.3494921 -2.0466485 216.56
32.234715 -23.904713 0.93172771 216.56
4.847352 -3.5947134 -2.0391452 216.56
32.259747 -23.923279 1.8729333 216.56
5.1204948 -3.7972715 -1.9892075 216.56
32.361969 -23.999084 2.8173244 216.56
5.5530701 -4.1180615 -1.9823838 216.56
32.321522 -23.969088 3.7541347 216.56
6.0671949 -4.4993281 -1.9773873 216.56
32.262909 -23.925621 4.697134 216.56
6.5747604 -4.87573 -1.9394644 216.56
32.273228 -23.933275 5.6468096 216.56
7.1481252 -5.3009276 -1.8915806 216.56
32.284489 -23.941626 6.6034927 216.56
7.9566026 -5.9004807 -1.8663331 216.56
8.7062349 -6.4988875 -1.7849469 216.74001
10.211523 -7.6225305 -1.7908795 216.74001
11.491699 -8.5781355 -1.6769838 216.74001
12.501392 -9.3318348 -1.4554309 216.74001
13.736996 -10.254167 -1.1986953 216.74001
2.9165955 -2.1771324 -1.6204388 216.74001
18.161478 -13.556882 -1.0568848 216.74001
2.8720057 -2.1438477 -1.4969827 216.74001
27.887764 -20.817202 -0.80796778 216.74001
3.0948477 -2.3101912 -1.508062 216.74001
32.094398 -23.957298 0 216.74001
4.5151706 -3.3704102 -2.0507529 216.74001
32.037682 -23.914963 0.92819965 216.74001
4.8375535 -3.6110575 -2.0397854 216.74001
32.056355 -23.928902 1.8654799 216.74001
5.10395 -3.8099129 -1.9874203 216.74001
32.172901 -24.0159 2.8074191 216.74001
5.5293207 -4.1274366 -1.9785249 216.74001
32.116802 -23.974024 3.7390862 216.74001
6.0483785 -4.514894 -1.9758679 216.74001
32.072968 -23.941303 4.6804085 216.74001
6.5734463 -4.9068384 -1.9436146 216.74001
32.082024 -23.948061 5.6264901 216.74001
7.1596551 -5.3444219 -1.8990654 216.74001
32.087337 -23.95203 6.5785265 216.74001
7.9254265 -5.9160423 -1.8633707 216.74001
8.7038345 -6.5350242 -1.7881893 216.89999
10.190197 -7.6510167 -1.7908795 216.89999
11.474054 -8.6149635 -1.677913 216.89999
12.475285 -9.3667088 -1.4554309 216.89999
13.722666 -10.303269 -1.1999508 216.89999
2.9090433 -2.1841714 -1.6196253 216.89999
18.102779 -13.591951 -1.0556736 216.89999
2.8512497 -2.1407788 -1.4892743 216.89999
27.719196 -20.812162 -0.80476469 216.89999
2.9021575 -2.1790016 -1.4171273 216.89999
31.905819 -23.955566 0 216.89999
3.2087247 -2.4091787 -1.460426 216.89999
31.862045 -23.922701 0.92504299 216.89999
4.8304811 -3.6268277 -2.0410659 216.89999
31.867987 -23.92716 1.8583993 216.89999
5.0826035 -3.8161268 -1.98325 216.89999
31.984453 -24.014606 2.7968161 216.89999
5.5300727 -4.1520958 -1.9829352 216.89999
31.935072 -23.97753 3.7257097 216.89999
6.0357466 -4.5317669 -1.9758679 216.89999
31.888435 -23.942514 4.663218 216.89999
6.5612745 -4.9263444 -1.9440757 216.89999
31.904156 -23.954317 5.6070061 216.89999
7.1462674 -5.3655691 -1.8994812 216.89999
31.91143 -23.95978 6.5561538 216.89999
7.9261637 -5.9511323 -1.867444 216.89999
8.6848364 -6.5635257 -1.7885135 217.08
10.164531 -7.681798 -1.7906011 217.08
11.434255 -8.641386 -1.6760546 217.08
12.477571 -9.4298677 -1.4591465 217.08
2.9240317 -2.2098238 -1.6318274 217.08
18.055208 -13.645143 -1.0553942 217.08
2.8665948 -2.1664162 -1.500837 217.08
27.569134 -20.835247 -0.80230433 217.08
31.713924 -23.967655 0 217.08
3.1861465 -2.4079158 -1.4535856 217.08
31.670286 -23.934677 0.92165422 217.08
4.8281331 -3.6488397 -2.0449073 217.08
31.690653 -23.950068 1.8524365 217.08
5.0842981 -3.8424354 -1.9886118 217.08
31.787882 -24.023548 2.7862132 217.08
5.5047307 -4.1601753 -1.9785249 217.08
31.74679 -23.992493 3.7125192 217.08
6.0214801 -4.5507064 -1.9758679 217.08
31.694201 -23.952749 4.6457958 217.08
6.5519762 -4.9516263 -1.9459201 217.08
31.711819 -23.966064 5.5864081 217.08
7.11689 -5.3785572 -1.8961546 217.08
31.71949 -23.971861 6.5321598 217.08
7.5844207 -5.7318916 -1.7911614 217.08
8.6778908 -6.5988216 -1.7911074 217.25
10.159035 -7.7251101 -1.7936629 217.25
11.425959 -8.6885004 -1.6786098 217.25
12.460632 -9.4752846 -1.460447 217.25
2.8738313 -2.185312 -1.6074232 217.25
18.025776 -13.707118 -1.0560462 217.25
2.8777823 -2.1883166 -1.5100871 217.25
27.387825 -20.826185 -0.7988227 217.25
4.1967573 -3.1912885 -2.0587628 217.25
31.521679 -23.969643 0 217.25
31.481356 -23.938978 0.91821903 217.25
4.8127608 -3.6597083 -2.0429866 217.25
31.508133 -23.959341 1.8459148 217.25
5.1063094 -3.8829279 -2.0017183 217.25
31.600531 -24.029602 2.7760286 217.25
5.4877725 -4.1729989 -1.9768711 217.25
31.564505 -24.002207 3.6995142 217.25
6.001791 -4.563868 -1.9738418 217.25
31.512306 -23.962515 4.6295347 217.25
6.5264115 -4.9627986 -1.9426923 217.25
31.519178 -23.967741 5.5649757 217.25
7.0790987 -5.3830719 -1.8903331 217.25
31.527262 -23.973886 6.5071931 217.25
7.8818402 -5.9934907 -1.8655925 217.25
10.118767 -7.7419801 -1.7906011 217.42
11.374887 -8.7030506 -1.674893 217.42
12.483073 -9.5509367 -1.466392 217.42
12.893368 -9.8648577 -1.1352168 217.42
2.8687856 -2.1949394 -1.6082367 217.42
17.99296 -13.766611 -1.0565121 217.42
2.9665463 -2.2697372 -1.5601921 217.42
27.244925 -20.84539 -0.7964552 217.42
4.191709 -3.2071226 -2.0609453 217.42
31.355118 -23.990145 0 217.42
3.1792648 -2.4324903 -1.4570059 217.42
31.300619 -23.948446 0.91501594 217.42
4.7883377 -3.6636097 -2.0372245 217.42
31.321077 -23.964102 1.8391137 217.42
5.0841517 -3.8899405 -1.997548 217.42
31.42293 -24.042028 2.7666812 217.42
5.4952159 -4.2044501 -1.9840376 217.42
31.372953 -24.003792 3.6853945 217.42
5.9928331 -4.5851827 -1.9753613 217.42
31.335367 -23.975033 4.6139703 217.42
6.5332966 -4.9986973 -1.9491479 217.42
31.344112 -23.981724 5.5466046 217.42
7.056881 -5.3992972 -1.8886698 217.42
31.349409 -23.985777 6.4851451 217.42
7.888998 -6.0359588 -1.8715174 217.42
8.4935665 -6.5409269 -1.7612773 217.60001
9.9594479 -7.669807 -1.7666633 217.60001
11.345915 -8.7375307 -1.6746608 217.60001
12.419874 -9.5645905 -1.4624907 217.60001
12.816472 -9.8700123 -1.131171 217.60001
2.8430574 -2.1894488 -1.5976615 217.60001
17.971783 -13.840136 -1.0578165 217.60001
2.881907 -2.219367 -1.5193373 217.60001
27.0795 -20.854023 -0.79353064 217.60001
3.1454349 -2.4223111 -1.5502557 217.60001
31.160751 -23.997009 0 217.60001
3.1418269 -2.4195323 -1.443325 217.60001
31.120674 -23.966145 0.91195214 217.60001
4.7918162 -3.6901953 -2.0436268 217.60001
31.134838 -23.977053 1.832592 217.60001
5.0779567 -3.9105532 -1.999931 217.60001
31.231853 -24.051764 2.7564969 217.60001
5.4743643 -4.2158279 -1.9812813 217.60001
31.191681 -24.020828 3.6729472 217.60001
5.9799318 -4.6051674 -1.9758679 217.60001
31.143427 -23.983667 4.5967798 217.60001
6.5391469 -5.035821 -1.9556036 217.60001
31.166622 -24.00153 5.5285125 217.60001
7.0507336 -5.4297957 -1.8915806 217.60001
31.15663 -23.993834 6.4608269 217.60001
7.8684392 -6.059514 -1.871147 217.60001
8.6051655 -6.6676364 -1.7885135 217.77
11.365478 -8.8064404 -1.6813976 217.77
12.478017 -9.6684818 -1.4727087 217.77
2.8466585 -2.2057083 -1.6033559 217.77
17.938534 -13.899516 -1.0582823 217.77
2.8767681 -2.2290385 -1.5201081 217.77
26.916353 -20.8559 -0.79055965 217.77
30.992975 -24.014635 0 217.77
30.941952 -23.9751 0.90879542 217.77
4.7748551 -3.6997545 -2.0410659 217.77
30.951433 -23.982447 1.8259772 217.77
5.0693502 -3.9279413 -2.0011225 217.77
31.043646 -24.053898 2.7461729 217.77
5.4648709 -4.2344074 -1.9823838 217.77
31.003788 -24.023012 3.659199 217.77
5.960124 -4.6181498 -1.9738418 217.77
30.960642 -23.989582 4.5802865 217.77
6.5195618 -5.0516253 -1.9542203 217.77
30.96846 -23.99564 5.5059662 217.77
7.0191278 -5.4387097 -1.8874223 217.77
30.980778 -24.005184 6.4391026 217.77
7.8814979 -6.1069093 -1.8785532 217.77
8.619586 -6.7198343 -1.7956468 217.94
9.7341337 -7.5887361 -1.7346535 217.94
11.354965 -8.8523369 -1.6837205 217.94
12.474402 -9.7250519 -1.4756813 217.94
2.8977394 -2.2590792 -1.6358948 217.94
17.892488 -13.948995 -1.0580028 217.94
2.8453991 -2.2182748 -1.5070038 217.94
26.762896 -20.864368 -0.78786719 217.94
3.1089664 -2.4237521 -1.5393435 217.94
30.823793 -24.030247 0 217.94
30.75399 -23.97583 0.90536022 217.94
3.0962081 -2.4138057 -1.3265648 217.94
30.763546 -23.983278 1.8190829 217.94
5.0531564 -3.9394436 -1.9993353 217.94
30.866718 -24.063711 2.7368255 217.94
5.4553156 -4.2529674 -1.9834864 217.94
30.825581 -24.031641 3.6465659 217.94
5.9433436 -4.6334343 -1.9728287 217.94
30.779663 -23.995844 4.5640254 217.94
6.498405 -5.0661607 -1.9523758 217.94
30.795599 -24.008268 5.4878736 217.94
6.9952459 -5.4534979 -1.8853432 217.94
30.805136 -24.015701 6.4173784 217.94
7.8664436 -6.1326842 -1.8792938 217.94
8.5716581 -6.723455 -1.7898105 218.11
9.8767586 -7.7471519 -1.7641582 218.11
11.350532 -8.9031534 -1.6869727 218.11
12.467429 -9.7792273 -1.4782822 218.11
2.8737724 -2.2541356 -1.6261331 218.11
17.87303 -14.019283 -1.0593071 218.11
2.8533256 -2.2380974 -1.5147122 218.11
14.824553 -11.628113 -0.43743062 218.11
3.0460587 -2.3892736 -1.5116993 218.11
30.643776 -24.036428 0 218.11
30.569445 -23.978125 0.90201789 218.11
3.0845599 -2.4194734 -1.3246441 218.11
30.571211 -23.979509 1.811909 218.11
5.0369387 -3.9508843 -1.997548 218.11
30.680588 -24.065302 2.7266409 218.11
5.4441853 -4.2703214 -1.9840376 218.11
30.653862 -24.044338 3.6346757 218.11
5.9189134 -4.6426892 -1.9692832 218.11
30.598919 -24.001244 4.5477643 218.11
6.4848762 -5.0866203 -1.952837 218.11
30.62138 -24.01886 5.4695029 218.11
6.9821129 -5.476644 -1.8861749 218.11
30.617281 -24.015646 6.3930602 218.11
7.843574 -6.1523585 -1.8781829 218.11
8.5408278 -6.7402997 -1.7875408 218.28
9.947011 -7.85004 -1.780859 218.28
11.383321 -8.9835548 -1.6958002 218.28
12.446175 -9.8223438 -1.4792112 218.28
2.9904175 -2.3599949 -1.6960918 218.28
17.826651 -14.068539 -1.0590277 218.28
14.799403 -11.679479 -0.43770915 218.28
3.0930665 -2.441004 -1.5386161 218.28
30.476555 -24.051664 0 218.28
30.399284 -23.990683 0.89909333 218.28
4.7417345 -3.7421093 -2.0410659 218.28
30.412104 -24.000801 1.8066916 218.28
5.031189 -3.9705427 -1.999931 218.28
30.496286 -24.067236 2.7165961 218.28
5.4179087 -4.2757363 -1.9790763 218.28
30.479216 -24.053764 3.6224139 218.28
5.9081497 -4.6626277 -1.9702963 218.28
30.426214 -24.011936 4.5326648 218.28
6.4850321 -5.1178951 -1.9574481 218.28
30.441151 -24.023724 5.4500184 218.28
6.9980817 -5.5227866 -1.8949071 218.28
30.445192 -24.026913 6.371985 218.28
7.8592277 -6.2023907 -1.8863295 218.28
8.5211554 -6.7683258 -1.787865 218.46001
9.9036903 -7.8664684 -1.7775189 218.46001
10.091989 -8.0160332 -1.5071715 218.46001
11.280075 -8.9597263 -1.3439605 218.46001
13.691736 -10.8753 -1.2226914 218.46001
3.0631073 -2.4330158 -1.7416463 218.46001
17.79175 -14.131928 -1.0595866 218.46001
3.1459596 -2.4988253 -1.6781316 218.46001
14.84875 -11.794313 -0.44026235 218.46001
2.997854 -2.3811855 -1.4949673 218.46001
30.320974 -24.083849 0 218.46001
3.0507069 -2.4231665 -1.4180155 218.46001
30.2173 -24.001501 0.89593667 218.46001
4.7255039 -3.7534521 -2.0391452 218.46001
30.233305 -24.014214 1.8005426 218.46001
5.0246701 -3.9910791 -2.0023141 218.46001
30.309605 -24.07482 2.7066908 218.46001
5.4059548 -4.293932 -1.9796275 218.46001
30.289669 -24.058983 3.6088517 218.46001
5.8934727 -4.6811657 -1.9702963 218.46001
30.243299 -24.022152 4.5166359 218.46001
6.4658742 -5.1358223 -1.9565259 218.46001
30.261621 -24.036705 5.4313693 218.46001
6.9822288 -5.5459614 -1.8953229 218.46001
30.258293 -24.034061 6.3486395 218.46001
7.1902423 -5.7111855 -1.7300612 218.46001
8.5025778 -6.7948108 -1.7881893 218.63
9.8756647 -7.8921094 -1.7766838 218.63
12.39372 -9.9044056 -1.4801401 218.63
3.4783592 -2.7797208 -1.9824344 218.63
17.751303 -14.185903 -1.0596797 218.63
2.9467885 -2.3549178 -1.575609 218.63
14.915218 -11.919454 -0.44327974 218.63
3.0009632 -2.3982112 -1.5000597 218.63
30.13689 -24.083811 0 218.63
3.0053315 -2.4017022 -1.4002304 218.63
30.036615 -24.003675 0.89268714 218.63
4.723227 -3.7745535 -2.0429866 218.63
30.055792 -24.019001 1.7942072 218.63
5.014298 -4.0071616 -2.0029099 218.63
30.128939 -24.077456 2.6969247 218.63
5.3946924 -4.3111529 -1.9801787 218.63
30.112368 -24.064213 3.5962183 218.63
5.8840919 -4.7022552 -1.9718158 218.63
30.063265 -24.024971 4.5003748 218.63
6.458209 -5.1610594 -1.9588314 218.63
30.084961 -24.042311 5.4124417 218.63
6.9779687 -5.5764241 -1.8986496 218.63
30.088179 -24.044882 6.327888 218.63
7.0964966 -5.671145 -1.7115459 218.63
8.4946842 -6.8299012 -1.7907832 218.8
9.8136177 -7.8903513 -1.7697252 218.8
11.347765 -9.1238375 -1.7027693 218.8
12.392213 -9.9635954 -1.4834841 218.8
3.0115936 -2.4213834 -1.7204961 218.8
