# .PCD v0.7 - Point Cloud Data file format
VERSION 0.7
FIELDS x y z intensity
SIZE 4 4 4 4
TYPE F F F F
COUNT 1 1 1 1
WIDTH 1243
HEIGHT 1
VIEWPOINT 0 0 0 1 0 0 0
POINTS 1243
DATA ascii
5.1159897 1.4814923 -1.9385701 163.85001
5.4799685 1.5868936 -1.9277445 163.85001
5.8720403 1.7004299 -1.9075899 163.85001
6.4005041 1.8534629 -1.9107182 163.85001
6.8688221 1.9890788 -1.8720347 163.85001
7.4585729 2.1598594 -1.8398629 163.85001
8.0105753 2.3197086 -1.7726551 163.85001
8.7860909 2.5442829 -1.7233957 163.85001
9.8582668 2.8230889 -1.6847564 164.02
9.8703566 2.826551 -1.4429467 164.02
12.9069 3.6961188 -1.2525549 164.02
14.621159 4.187027 -1.0635072 164.02
4.3789248 1.2539825 -2.0279889 164.02
23.406698 6.7029214 -1.1354245 164.02
4.5915437 1.3148695 -1.9949492 164.02
11.827283 3.3869512 -0.28563204 164.02
4.842895 1.3868484 -1.9671006 164.02
11.768943 3.3702445 0 164.02
5.1131358 1.4642367 -1.9358341 164.02
5.488296 1.5716704 -1.9290249 164.02
5.8642116 1.6793205 -1.9034196 164.02
6.4170647 1.8376398 -1.9140258 164.02
6.8412127 1.959102 -1.8629177 164.02
7.4612069 2.1366484 -1.8389406 164.02
8.0230656 2.2975464 -1.7739025 164.02
8.7841539 2.5154977 -1.7215441 164.02
9.898881 2.8029671 -1.6902685 164.19
11.427759 3.2358844 -1.3889301 164.19
12.898649 3.6523817 -1.250697 164.19
14.612401 4.1376476 -1.0619725 164.19
4.3773527 1.2394911 -2.0255485 164.19
23.389961 6.6231012 -1.1336542 164.19
4.5989761 1.302246 -1.9964908 164.19
35.586868 10.076777 -0.85870653 164.19
4.8469882 1.3724732 -1.9671006 164.19
5.130116 1.4526435 -1.9406223 164.19
5.5202808 1.5631227 -1.9386284 164.19
5.8820271 1.6655548 -1.9075899 164.19
6.420639 1.8180681 -1.9134746 164.19
6.8656116 1.9440665 -1.8679827 164.19
7.4806209 2.1182127 -1.8421685 164.19
8.026082 2.2726655 -1.7730709 164.19
8.7651043 2.4819269 -1.71636 164.19
9.9508648 2.7858214 -1.697726 164.36
11.235351 3.1454232 -1.6397375 164.36
14.622692 4.0937357 -1.061833 164.36
4.3845296 1.2274829 -2.0271754 164.36
23.372955 6.5434394 -1.1318841 164.36
4.5939336 1.2861072 -1.9926367 164.36
35.610832 9.9695282 -0.8585673 164.36
4.8492451 1.3575836 -1.9663731 164.36
5.1307836 1.4364024 -1.9392542 164.36
5.4829288 1.5349883 -1.9239031 164.36
5.8685579 1.642948 -1.9016324 164.36
6.4463701 1.804711 -1.9195385 164.36
6.8508549 1.9179497 -1.8624111 164.36
7.4849987 2.0954833 -1.8417073 164.36
8.0403252 2.2509511 -1.7747341 164.36
8.7762146 2.456969 -1.7171005 164.36
9.9643116 2.7596028 -1.6986988 164.52
11.276538 3.1230221 -1.6444694 164.52
12.351719 3.4207921 -1.4988086 164.52
12.023246 3.3298218 -1.1639359 164.52
14.626376 4.0507555 -1.061275 164.52
4.3756146 1.2118207 -2.021481 164.52
23.429644 6.4888086 -1.1337475 164.52
4.5797219 1.2683479 -1.9849281 164.52
11.831339 3.2766733 -0.28502855 164.52
4.8530173 1.3440367 -1.9663731 164.52
11.759356 3.2567382 0 164.52
5.1021733 1.41304 -1.9269415 164.52
5.4634557 1.5130968 -1.91558 164.52
5.8510437 1.6204387 -1.8944833 164.52
6.4439735 1.7846498 -1.9173335 164.52
6.8505902 1.8972617 -1.8608917 164.52
7.4739418 2.0698981 -1.8375573 164.52
8.0635481 2.2331889 -1.7784766 164.52
8.7356882 2.4193373 -1.7078429 164.52
9.952467 2.72082 -1.6951321 164.71001
11.223788 3.0683756 -1.6352839 164.71001
12.38024 3.3845282 -1.5008993 164.71001
12.020776 3.2862573 -1.1626354 164.71001
14.624332 3.9980214 -1.0601588 164.71001
4.3778467 1.1968222 -2.0206676 164.71001
23.399 6.396853 -1.1312319 164.71001
4.6034846 1.2585073 -1.9934075 164.71001
35.626709 9.7396822 -0.8574996 164.71001
4.8592448 1.3284274 -1.9671006 164.71001
5.1050181 1.3956172 -1.9262575 164.71001
5.4867201 1.4999676 -1.9219824 164.71001
5.8748012 1.6060617 -1.9004409 164.71001
6.4072032 1.7516105 -1.9046541 164.71001
6.8419132 1.8704523 -1.8568397 164.71001
7.4976597 2.0497212 -1.8417073 164.71001
8.0577002 2.2028258 -1.7755659 164.71001
8.7758932 2.3991663 -1.7141382 164.71001
9.9671764 2.6968169 -1.696429 164.86
11.258548 3.0462232 -1.6391808 164.86
12.389059 3.3521051 -1.5008993 164.86
12.021649 3.2526953 -1.1618923 164.86
14.627046 3.9576368 -1.0596008 164.86
4.393311 1.1886972 -2.0263619 164.86
23.367455 6.3225279 -1.1289028 164.86
4.624578 1.2512711 -2.001116 164.86
35.625065 9.6390667 -0.85684967 164.86
4.8555126 1.3137552 -1.9641907 164.86
43.607964 11.798999 0 164.86
5.1413088 1.391083 -1.9385701 164.86
5.5418401 1.4994545 -1.939909 164.86
5.867928 1.5876842 -1.8968663 164.86
6.4210458 1.7373412 -1.9074105 164.86
6.8617277 1.8565764 -1.8608917 164.86
7.4785786 2.0234776 -1.8357128 164.86
8.074769 2.1847887 -1.7780608 164.86
8.4178658 2.2492626 -1.4315242 165.03999
11.283369 3.0149283 -1.6414076 165.03999
12.39569 3.3121419 -1.5004348 165.03999
12.045276 3.2185106 -1.1631929 165.03999
14.629769 3.90909 -1.0589032 165.03999
4.3881979 1.1725311 -2.0222945 165.03999
23.427736 6.2599163 -1.1308593 165.03999
4.6088738 1.231496 -1.9926367 165.03999
11.820024 3.158323 -0.28405371 165.03999
4.8542161 1.2970518 -1.9620082 165.03999
11.738192 3.1364574 0 165.03999
5.1347599 1.3720133 -1.9344659 165.03999
5.5465231 1.4820369 -1.939909 165.03999
5.8821096 1.5717061 -1.8998451 165.03999
6.4413314 1.7211306 -1.9118207 165.03999
6.8693957 1.83551 -1.8613981 165.03999
7.4754982 1.9974611 -1.8334073 165.03999
8.0853729 2.1604204 -1.7788924 165.03999
8.709816 2.3272722 -1.6985853 165.03999
10.012547 2.6416905 -1.7012926 165.22
12.361857 3.2615278 -1.4950918 165.22
12.018744 3.1710012 -1.159663 165.22
14.632332 3.8605652 -1.0582057 165.22
4.3883262 1.1578072 -2.0206676 165.22
23.37388 6.1669178 -1.127319 165.22
4.5948758 1.2123028 -1.9849281 165.22
35.570862 9.3849449 -0.85411084 165.22
4.8492603 1.2794192 -1.9583708 165.22
5.1390448 1.3558753 -1.9344659 165.22
5.5493197 1.4641215 -1.9392687 165.22
5.8630195 1.5468874 -1.8921003 165.22
6.4467063 1.7008861 -1.9118207 165.22
6.871387 1.812933 -1.8603852 165.22
7.4911451 1.9764487 -1.8357128 165.22
8.1072531 2.1390014 -1.7822191 165.22
8.8235054 2.327976 -1.7193223 165.22
12.376683 3.2284985 -1.4957887 165.38
12.01599 3.1344104 -1.1585482 165.38
14.635333 3.8176746 -1.0576477 165.38
3.0107877 0.78537387 -1.385345 165.38
23.377478 6.0980916 -1.1266668 165.38
4.5946717 1.1985351 -1.9833865 165.38
35.560169 9.2759867 -0.85322881 165.38
4.8510118 1.2654022 -1.9576434 165.38
5.1555405 1.3448397 -1.9392542 165.38
5.5442195 1.4462278 -1.9360676 165.38
5.9042645 1.5401467 -1.9040154 165.38
6.4514313 1.6828769 -1.9118207 165.38
6.8782949 1.7942257 -1.8608917 165.38
7.4928689 1.9545394 -1.8347906 165.38
8.1037302 2.1138844 -1.7801399 165.38
8.8375797 2.3053114 -1.7208036 165.38
9.7471018 2.5098851 -1.6536293 165.56
9.6857462 2.494086 -1.4056484 165.56
12.39446 3.1915815 -1.4967179 165.56
12.037349 3.0996251 -1.159663 165.56
14.629866 3.7672 -1.0563921 165.56
3.002624 0.77317762 -1.3804642 165.56
23.417803 6.0300994 -1.1276916 165.56
4.6144991 1.1882365 -1.9903241 165.56
11.793984 3.0369585 -0.28275388 165.56
4.8513546 1.249227 -1.9561884 165.56
11.746805 3.0248098 0 165.56
5.1670203 1.3305111 -1.9419904 165.56
5.5340567 1.4250232 -1.9309456 165.56
5.9109225 1.5220664 -1.9046111 165.56
6.4734421 1.6669155 -1.9167821 165.56
6.8838978 1.7726082 -1.8608917 165.56
7.495203 1.9300196 -1.8338684 165.56
8.1254864 2.0923181 -1.7834665 165.56
8.8485851 2.2785163 -1.7215441 165.56
9.6626987 2.4576037 -1.6380657 165.73
12.403875 3.1547923 -1.4967179 165.73
12.046493 3.0638959 -1.159663 165.73
14.633245 3.7218087 -1.0558339 165.73
3.004905 0.7642653 -1.3804642 165.73
23.387186 5.9482799 -1.1253624 165.73
4.6341009 1.1786338 -1.9972618 165.73
11.808756 3.0034304 -0.28289315 165.73
4.8622618 1.2366641 -1.9590983 165.73
44.526394 11.32481 0 165.73
5.1745877 1.3161008 -1.9433584 165.73
5.547442 1.4109322 -1.9341469 165.73
5.9191132 1.5054629 -1.9058026 165.73
6.4560013 1.6420145 -1.9101669 165.73
6.8853765 1.7512215 -1.8598787 165.73
7.4254537 1.8885844 -1.8154236 165.73
8.1240749 2.0662713 -1.7818031 165.73
8.8572111 2.2527366 -1.7219145 165.73
9.7422552 2.4488931 -1.6503868 165.89
9.6692181 2.4305339 -1.4011948 165.89
12.339428 3.1017399 -1.4878905 165.89
14.633906 3.6784985 -1.0551364 165.89
3.0176592 0.75854355 -1.385345 165.89
23.374643 5.8756418 -1.1239649 165.89
4.6534824 1.1697375 -2.0041993 165.89
11.840367 2.9762917 -0.28345022 165.89
4.8566623 1.2208104 -1.9554609 165.89
43.989525 11.057568 0 165.89
5.1818886 1.3025619 -1.9447266 165.89
5.5568728 1.3968211 -1.9360676 165.89
5.8992233 1.4828771 -1.8980578 165.89
6.441916 1.6192929 -1.9046541 165.89
6.8939929 1.7329305 -1.8608917 165.89
7.4741087 1.8787532 -1.8260293 165.89
8.1222248 2.0416689 -1.7801399 165.89
8.8596554 2.2270355 -1.7211739 165.89
9.7882109 2.4277771 -1.6568717 166.07001
9.724864 2.4120648 -1.4081534 166.07001
12.349112 3.0629592 -1.4878905 166.07001
14.639581 3.6310658 -1.0547179 166.07001
23.375534 5.7978506 -1.1231264 166.07001
4.6589255 1.1555567 -2.0049701 166.07001
11.805023 2.9280086 -0.28238252 166.07001
4.8695149 1.2077893 -1.9590983 166.07001
11.825675 2.9331307 0 166.07001
5.1841307 1.2858237 -1.9440424 166.07001
5.5630727 1.379813 -1.9367077 166.07001
5.9057059 1.4647964 -1.8986536 166.07001
6.4320436 1.5953444 -1.9002439 166.07001
6.8918915 1.7094008 -1.8588656 166.07001
7.4421964 1.8458934 -1.816807 166.07001
8.1248016 2.0152004 -1.7793082 166.07001
8.851347 2.195406 -1.7182114 166.07001
10.00623 2.4503601 -1.6925381 166.24001
11.326721 2.7737265 -1.6389024 166.24001
12.365863 3.0281951 -1.4888196 166.24001
4.4135656 1.0808091 -2.023108 166.24001
23.342182 5.7161136 -1.1207041 166.24001
4.6659188 1.1426061 -2.0065119 166.24001
11.854443 2.9029567 -0.28335738 166.24001
4.8857436 1.1964377 -1.9641907 166.24001
44.126186 10.805772 0 166.24001
5.1952248 1.2722245 -1.9467787 166.24001
5.5505791 1.3592448 -1.9309456 166.24001
5.9174438 1.4490839 -1.9010366 166.24001
6.4442182 1.5780823 -1.902449 166.24001
6.8837781 1.6857232 -1.8553201 166.24001
7.4741044 1.8302844 -1.8232627 166.24001
8.1269445 1.990154 -1.7784766 166.24001
8.6421032 2.116308 -1.676367 166.24001
9.3808174 2.2659929 -1.5855386 166.42
12.319319 2.9758053 -1.482083 166.42
12.638056 3.0527983 -1.2129829 166.42
4.3974032 1.0622191 -2.0141599 166.42
23.348372 5.6399393 -1.1201451 166.42
4.6694851 1.1279422 -2.0065119 166.42
11.873222 2.868048 -0.28358948 166.42
4.8804235 1.1788956 -1.9605533 166.42
44.453472 10.738003 0 166.42
5.1937156 1.2545731 -1.9447266 166.42
5.5621886 1.3435801 -1.9335066 166.42
5.9275346 1.4318315 -1.9028239 166.42
6.4547505 1.5591837 -1.9041028 166.42
6.8928013 1.6649975 -1.8563331 166.42
7.4552255 1.8008543 -1.8172681 166.42
8.1255503 1.9627753 -1.7768133 166.42
8.8473988 2.1371422 -1.7148787 166.42
10.04213 2.3942249 -1.6961049 166.59
12.308771 2.9346333 -1.4797599 166.59
12.648995 3.0157487 -1.2131686 166.59
12.933037 3.0834694 -0.92971426 166.59
4.4094219 1.0512857 -2.0182273 166.59
23.331966 5.5627618 -1.1185613 166.59
4.6548595 1.1098026 -1.9988034 166.59
11.887514 2.834198 -0.28372875 166.59
4.8947735 1.1670023 -1.9649181 166.59
46.160187 11.005422 0 166.59
5.1955867 1.2387217 -1.9440424 166.59
5.573523 1.3288286 -1.9360676 166.59
5.922471 1.4120239 -1.8998451 166.59
6.4518676 1.5382417 -1.9018978 166.59
6.9033575 1.645885 -1.8578526 166.59
7.4567494 1.7778237 -1.8163458 166.59
8.1351442 1.9395652 -1.777645 166.59
9.3745031 2.2074025 -1.5822963 166.75
10.381272 2.4444652 -1.4988943 166.75
12.289847 2.8938749 -1.4765077 166.75
12.974611 3.0551155 -0.93208599 166.75
4.4158974 1.0398058 -2.0198541 166.75
23.310461 5.4888849 -1.1167911 166.75
4.6615334 1.0976454 -2.000345 166.75
35.614136 8.3860159 -0.84946865 166.75
4.8943863 1.152475 -1.9634632 166.75
46.223835 10.884268 0 166.75
5.2026844 1.2250696 -1.9454106 166.75
5.5790567 1.3136934 -1.9367077 166.75
5.9152408 1.3928542 -1.8962706 166.75
6.4430389 1.5171342 -1.8980389 166.75
6.9211097 1.629705 -1.8613981 166.75
7.4900999 1.7636844 -1.8232627 166.75
8.1405287 1.91684 -1.777645 166.75
8.5209417 2.0064156 -1.6493349 166.75
9.4182987 2.1847768 -1.5884569 166.94
9.4979811 2.2032607 -1.3702984 166.94
12.27809 2.8481667 -1.4739524 166.94
12.490656 2.8974757 -1.1962624 166.94
4.397963 1.020202 -2.0100925 166.94
12.969163 3.0084758 -0.62086391 166.94
4.6759343 1.0846833 -2.0049701 166.94
35.610584 8.2606401 -0.84872591 166.94
4.8836627 1.1328704 -1.9576434 166.94
46.382416 10.759397 0 166.94
5.2067184 1.2078102 -1.9454106 166.94
5.5907655 1.296898 -1.9392687 166.94
5.9254065 1.3745252 -1.8980578 166.94
6.4705081 1.5009732 -1.9046541 166.94
6.9227061 1.6058704 -1.8603852 166.94
7.5774255 1.7577466 -1.8430908 166.94
8.1601801 1.892929 -1.7805557 166.94
8.7094345 2.0203402 -1.6845138 166.94
9.4166689 2.1567049 -1.5871599 167.10001
9.3457918 2.1404719 -1.347474 167.10001
12.26276 2.808547 -1.4711647 167.10001
12.826743 2.9377162 -1.2276598 167.10001
12.652696 2.8978543 -0.90767121 167.10001
4.4114809 1.0103639 -2.0149734 167.10001
23.289028 5.3338995 -1.1141824 167.10001
4.677146 1.0712094 -2.0041993 167.10001
35.610126 8.1558075 -0.84816885 167.10001
4.8940711 1.1208919 -1.9605533 167.10001
5.2210627 1.195783 -1.9495149 167.10001
5.5869775 1.2795886 -1.9367077 167.10001
5.9273605 1.3575468 -1.8974621 167.10001
6.49154 1.4867612 -1.9096156 167.10001
6.92905 1.5869642 -1.8608917 167.10001
7.5917897 1.7387519 -1.8453963 167.10001
8.171155 1.8714443 -1.7818031 167.10001
8.8740549 2.0324299 -1.7152491 167.10001
9.4288015 2.1300604 -1.5881326 167.27
11.339978 2.5618143 -1.6338922 167.27
12.241975 2.7655845 -1.4676802 167.27
12.632047 2.8537056 -0.90557855 167.27
4.4162412 0.99767303 -2.0157869 167.27
23.281366 5.2594934 -1.1130644 167.27
4.6803041 1.0573274 -2.0041993 167.27
11.906661 2.6898336 -0.28340381 167.27
4.8864722 1.1039028 -1.9561884 167.27
11.872804 2.6821849 0 167.27
5.2282538 1.1811148 -1.9508829 167.27
5.5778122 1.2600834 -1.9322262 167.27
5.9183264 1.3370091 -1.8932918 167.27
6.4640431 1.460292 -1.9002439 167.27
6.9356151 1.5668248 -1.8613981 167.27
7.6121016 1.7196498 -1.8490853 167.27
8.1728554 1.8463297 -1.7809715 167.27
8.8819628 2.0065241 -1.7156193 167.27
9.4793854 2.1119461 -1.5955901 167.44
11.335931 2.5255725 -1.6322222 167.44
12.215226 2.7214739 -1.4634988 167.44
12.569888 2.8004904 -1.2014643 167.44
12.576195 2.8018956 -0.90097463 167.44
4.4138322 0.98337346 -2.0133464 167.44
23.26177 5.1825728 -1.1113874 167.44
4.6960297 1.0462452 -2.0095952 167.44
35.59935 7.9313068 -0.84677619 167.44
4.8860888 1.0885893 -1.9547335 167.44
5.2372384 1.1668231 -1.952935 167.44
83.431404 18.58798 1.9845229 167.44
5.5852251 1.2443523 -1.9335066 167.44
5.9241309 1.3198583 -1.8938876 167.44
6.462718 1.4398521 -1.8985901 167.44
6.9062405 1.538666 -1.8522811 167.44
7.6152706 1.6966335 -1.8486241 167.44
8.1897545 1.8246248 -1.7834665 167.44
8.8782854 1.9780251 -1.7137678 167.44
9.4647694 2.0775011 -1.5920235 167.62
11.187116 2.4555533 -1.6096761 167.62
12.221775 2.6826594 -1.4632665 167.62
12.623361 2.7708068 -1.2057374 167.62
12.647295 2.7760603 -0.90543902 167.62
4.4240379 0.97106904 -2.0166004 167.62
23.244762 5.1021872 -1.1098036 167.62
4.6866751 1.0287175 -2.0041993 167.62
35.626045 7.8198576 -0.84682262 167.62
4.8949437 1.0744321 -1.9569159 167.62
5.2372069 1.1495583 -1.9515669 167.62
83.235497 18.270054 1.9784881 167.62
5.5854053 1.2259872 -1.9322262 167.62
83.054367 18.230295 3.9653676 167.62
5.9189239 1.2991941 -1.8909088 167.62
6.4559426 1.4170687 -1.8952825 167.62
6.9015913 1.5148878 -1.8497486 167.62
7.6186624 1.6722838 -1.848163 167.62
8.1992674 1.7997258 -1.7842982 167.62
8.8806162 1.9492806 -1.7130272 167.62
9.4943962 2.0527611 -1.5959144 167.8
11.272207 2.4371374 -1.6208099 167.8
12.220435 2.6421516 -1.462105 167.8
12.846105 2.777426 -1.2261735 167.8
12.579901 2.7198708 -0.89999801 167.8
4.393136 0.94982964 -2.0011442 167.8
23.276299 5.0325141 -1.1105489 167.8
4.6970992 1.0155488 -2.0072827 167.8
11.964256 2.5867636 -0.28419298 167.8
4.900116 1.0594426 -1.9576434 167.8
11.877558 2.5680189 0 167.8
5.2444668 1.1338938 -1.952935 167.8
83.220177 17.99284 1.9767705 167.8
5.5966372 1.2100358 -1.934787 167.8
83.111229 17.969284 3.9653676 167.8
5.9397712 1.284224 -1.8962706 167.8
6.469758 1.3988112 -1.8980389 167.8
6.936574 1.4997404 -1.8578526 167.8
7.6162696 1.6466959 -1.8463186 167.8
8.193409 1.7714777 -1.7818031 167.8
8.8040924 1.9035121 -1.6971041 167.8
9.4174471 2.0068944 -1.581972 167.97
11.376241 2.4243209 -1.6347272 167.97
12.187421 2.5971866 -1.4572266 167.97
12.349855 2.6318021 -1.1780555 167.97
12.5645 2.6775436 -0.89832389 167.97
4.4030828 0.93831402 -2.0043981 167.97
23.244234 4.9534364 -1.1083128 167.97
4.692872 1.0000691 -2.0041993 167.97
35.63208 7.5933347 -0.84584779 167.97
4.8995938 1.0441225 -1.9561884 167.97
5.2386174 1.1163696 -1.9495149 167.97
5.6076155 1.1950046 -1.937348 167.97
83.240379 17.738848 3.9690011 167.97
5.9342189 1.264605 -1.8932918 167.97
6.4889226 1.3828145 -1.902449 167.97
6.9258547 1.4759265 -1.8538007 167.97
7.624929 1.6249019 -1.8472408 167.97
8.183322 1.7438977 -1.7784766 167.97
9.9602928 2.0917015 -1.672111 168.14
11.404704 2.3950338 -1.637789 168.14
12.185353 2.5589731 -1.4560652 168.14
12.421922 2.6086535 -1.1841863 168.14
12.609488 2.6480432 -0.90097463 168.14
4.4255166 0.92937624 -2.0133464 168.14
4.7012367 0.98727864 -2.0065119 168.14
35.640755 7.4847021 -0.84552282 168.14
4.9099631 1.0311121 -1.9590983 168.14
5.2437458 1.1012077 -1.9501989 168.14
5.6129909 1.1787506 -1.9379883 168.14
5.9323397 1.2458153 -1.8915046 168.14
6.4911156 1.3631604 -1.9018978 168.14
6.9510317 1.4597447 -1.8593721 168.14
7.6468577 1.6058708 -1.8513908 168.14
8.2076054 1.7236302 -1.7826349 168.14
8.4055347 1.7651962 -1.6182293 168.14
9.4465837 1.954574 -1.5848901 168.31
11.404002 2.3595798 -1.6366757 168.31
12.173439 2.5187824 -1.4537421 168.31
12.240452 2.5326478 -1.1661654 168.31
12.460989 2.5782788 -0.8898136 168.31
4.4318328 0.91698182 -2.0149734 168.31
4.7023382 0.97295153 -2.0057411 168.31
12.010303 2.4850283 -0.28475001 168.31
4.9166498 1.0172943 -1.9605533 168.31
11.921489 2.4666519 0 168.31
5.2414689 1.084502 -1.9481467 168.31
5.6053305 1.1597879 -1.9341469 168.31
5.9416189 1.2293687 -1.8932918 168.31
6.5064273 1.3462321 -1.9052054 168.31
6.9363856 1.4351939 -1.8543071 168.31
7.6401539 1.5808092 -1.8486241 168.31
8.2414188 1.7052158 -1.7888722 168.31
8.5281391 1.7645406 -1.6408179 168.31
9.5374279 1.9438789 -1.5991567 168.48
11.426478 2.3288972 -1.6389024 168.48
12.198377 2.4862225 -1.4558328 168.48
12.308401 2.5086472 -1.1719247 168.48
12.703176 2.5891085 -0.90655512 168.48
4.4381146 0.90455806 -2.0166004 168.48
12.884809 2.6261282 -0.61322421 168.48
4.7015877 0.95825803 -2.0041993 168.48
13.51052 2.7536581 -0.32012329 168.48
4.906868 1.0000974 -1.9554609 168.48
5.2575541 1.0715728 -1.952935 168.48
5.6198869 1.1454219 -1.9379883 168.48
5.9639478 1.2155471 -1.8992493 168.48
6.4972062 1.3242335 -1.9013464 168.48
6.95578 1.4176981 -1.8583591 168.48
7.6600661 1.5612428 -1.8523132 168.48
8.2502766 1.681537 -1.7897038 168.48
8.9185028 1.8177321 -1.7148787 168.48
9.6383028 1.9329215 -1.6150446 168.66
11.433739 2.2929885 -1.6389024 168.66
12.202232 2.4471068 -1.4553683 168.66
12.484331 2.5036805 -0.89037162 168.66
4.4481001 0.89204794 -2.0198541 168.66
4.7118125 0.94493437 -2.0072827 168.66
12.76238 2.559442 -0.30220455 168.66
4.9191189 0.98650873 -1.9590983 168.66
5.2572093 1.0543114 -1.9515669 168.66
5.6253152 1.1281334 -1.9386284 168.66
5.9770966 1.1986818 -1.9022281 168.66
6.5145297 1.3064617 -1.9052054 168.66
6.9677877 1.3973608 -1.8603852 168.66
7.6725655 1.5387011 -1.8541576 168.66
8.24401 1.6533017 -1.7872089 168.66
8.9415121 1.793183 -1.7182114 168.66
10.156727 2.0074019 -1.7009685 168.82001
11.445926 2.2622027 -1.6397375 168.82001
12.212915 2.4137926 -1.4558328 168.82001
12.621966 2.4946382 -1.2003496 168.82001
12.193769 2.4100084 -0.86916566 168.82001
4.4541588 0.88033158 -2.021481 168.82001
4.7017598 0.92926806 -2.0018868 168.82001
4.9108887 0.97060084 -1.9547335 168.82001
11.954745 2.362767 0 168.82001
5.2693515 1.0414484 -1.9549872 168.82001
5.617291 1.110216 -1.934787 168.82001
5.978548 1.1816158 -1.9016324 168.82001
6.5219245 1.2890102 -1.9063079 168.82001
6.9735608 1.3782728 -1.8608917 168.82001
7.6596498 1.5138732 -1.8500075 168.82001
8.2658672 1.6336875 -1.7909513 168.82001
8.9387722 1.7666823 -1.7167302 168.82001
10.161046 1.9751073 -1.7006443 169
11.460753 2.2277448 -1.6408509 169
12.208739 2.3731384 -1.454439 169
12.459676 2.4219158 -1.1841863 169
12.279619 2.3869162 -0.8747462 169
4.7046561 0.91449249 -2.0018868 169
4.9175711 0.95587903 -1.9561884 169
43.76683 8.50741 0 169
5.2707524 1.0245305 -1.9543031 169
5.6281905 1.0940094 -1.937348 169
5.9803562 1.1624635 -1.9010366 169
6.5165057 1.2666804 -1.9035516 169
6.9740577 1.3556195 -1.8598787 169
7.6796508 1.4927729 -1.8536965 169
8.2440739 1.6024855 -1.7851298 169
8.9539251 1.7404667 -1.7185818 169
10.188184 1.9490292 -1.7042109 169.17
11.457586 2.1918695 -1.6394591 169.17
12.192313 2.3324251 -1.4516515 169.17
12.732807 2.4358232 -1.209453 169.17
12.27489 2.348222 -0.87390912 169.17
12.54071 2.3990746 -0.59542936 169.17
4.7073488 0.9005295 -2.0018868 169.17
4.9240451 0.94198418 -1.9576434 169.17
43.546333 8.3305397 0 169.17
5.2737694 1.0088874 -1.9543031 169.17
83.514633 15.976592 1.9741244 169.17
5.6295509 1.0769495 -1.9367077 169.17
83.615204 15.995831 3.970026 169.17
5.9894047 1.1457906 -1.9028239 169.17
6.5296769 1.2491462 -1.9063079 169.17
6.9723482 1.3338305 -1.8583591 169.17
7.6725774 1.4677864 -1.8509297 169.17
8.2622423 1.580591 -1.7880405 169.17
8.9764233 1.7172159 -1.7219145 169.17
10.106646 1.9023638 -1.68962 169.34
11.464039 2.1578646 -1.6394591 169.34
12.195276 2.2955046 -1.4511868 169.34
12.548194 2.3619339 -1.1912462 169.34
12.179847 2.2926004 -0.86665446 169.34
2.6574278 0.50020498 -1.2039405 169.34
4.7154408 0.88758272 -2.0041993 169.34
4.9323111 0.92840397 -1.9598258 169.34
43.559063 8.1990795 0 169.34
5.2748923 0.99288774 -1.953619 169.34
5.6364455 1.0609425 -1.9379883 169.34
5.9815207 1.1258956 -1.8992493 169.34
6.5276866 1.2286999 -1.9046541 169.34
29.161049 5.488955 2.7683654 169.34
6.9667683 1.3113478 -1.8558266 169.34
7.6615987 1.442135 -1.8472408 169.34
7.0345511 1.3241066 -1.5214977 169.34
8.9563694 1.6858485 -1.7171005 169.34
10.143294 1.8781173 -1.6948079 169.50999
11.456759 2.1213167 -1.6375107 169.50999
12.196174 2.2582254 -1.4504899 169.50999
12.506195 2.3156285 -1.1866015 169.50999
12.372965 2.2909598 -0.87990814 169.50999
12.509544 2.3162487 -0.59328651 169.50999
4.7107949 0.87224382 -2.001116 169.50999
12.834332 2.3763862 -0.30304015 169.50999
4.9295483 0.91274792 -1.9576434 169.50999
44.940136 8.3210487 0 169.50999
5.2722712 0.97620595 -1.9515669 169.50999
5.6432948 1.0449041 -1.9392687 169.50999
5.986712 1.1084907 -1.8998451 169.50999
6.5275226 1.2086264 -1.9035516 169.50999
29.302523 5.425612 2.7802556 169.50999
6.9516039 1.2871487 -1.8507617 169.50999
6.8850989 1.2748348 -1.6591045 169.50999
7.0192127 1.2996671 -1.5173395 169.50999
8.9593992 1.6589092 -1.7167302 169.50999
10.043975 1.8289216 -1.6772989 169.67999
11.441569 2.0834117 -1.6344489 169.67999
12.206729 2.2227404 -1.4509546 169.67999
12.642314 2.3020568 -1.1988633 169.67999
12.342414 2.2474475 -0.87725741 169.67999
2.6873121 0.48933649 -1.2161425 169.67999
12.917326 2.3521342 -0.61229259 169.67999
4.7115464 0.85793221 -2.000345 169.67999
4.9285693 0.89745015 -1.9561884 169.67999
5.2677488 0.95921183 -1.9488307 169.67999
5.6333213 1.0257795 -1.934787 169.67999
5.9749479 1.0879867 -1.8950791 169.67999
6.5443196 1.1916645 -1.9074105 169.67999
6.9382606 1.2633977 -1.8462031 169.67999
29.309048 5.336926 3.483824 169.67999
6.9884119 1.2725298 -1.6830826 169.67999
8.9662161 1.632671 -1.7171005 169.67999
11.485101 2.0540814 -1.6397375 169.86
12.215607 2.1847308 -1.4511868 169.86
12.820025 2.2928295 -1.2150265 169.86
12.249251 2.190748 -0.87014228 169.86
2.7230089 0.48700333 -1.2315985 169.86
12.307132 2.2010996 -0.58303815 169.86
4.7214851 0.84442586 -2.0034285 169.86
4.933198 0.88229018 -1.9569159 169.86
43.789181 7.8315859 0 169.86
5.274436 0.94331974 -1.9501989 169.86
11.982588 2.1430559 0.28261462 169.86
5.6309209 1.0070761 -1.9328663 169.86
29.572121 5.2888999 1.40095 169.86
5.9726982 1.0682021 -1.8932918 169.86
29.506613 5.277184 2.0960426 169.86
6.5461388 1.1707605 -1.9068593 169.86
6.8641076 1.2276285 -1.8254365 169.86
6.9674706 1.2461147 -1.677088 169.86
8.2903061 1.4827005 -1.7901196 169.86
8.9771051 1.6055328 -1.7182114 169.86
10.177103 1.7908351 -1.697726 170.02
11.512248 2.0257766 -1.6427993 170.02
12.219704 2.1502657 -1.4509546 170.02
12.3145 2.1669466 -1.1665369 170.02
12.29462 2.1634483 -0.87293249 170.02
2.8629153 0.50377887 -1.2942359 170.02
12.350615 2.1733017 -0.58480835 170.02
4.7147369 0.82963854 -1.9995743 170.02
4.931973 0.86786491 -1.9554609 170.02
11.991756 2.1101544 0 170.02
5.2714968 0.92760992 -1.9481467 170.02
11.974741 2.1071603 0.28228968 170.02
5.650506 0.99430305 -1.9386284 170.02
29.622192 5.2125306 1.402627 170.02
6.000102 1.0558205 -1.9010366 170.02
29.421022 5.1771317 2.0889273 170.02
6.538022 1.1504767 -1.9035516 170.02
6.8160601 1.1994022 -1.8117609 170.02
29.410631 5.175303 3.4921868 170.02
6.9747567 1.2273276 -1.6780103 170.02
8.2905607 1.4588658 -1.789288 170.02
8.9757462 1.5794359 -1.7171005 170.02
10.196292 1.7612054 -1.6999958 170.2
11.528314 1.9912856 -1.644191 170.2
12.230313 2.1125419 -1.4514191 170.2
12.258453 2.1174026 -1.1605918 170.2
12.208953 2.1088524 -0.86637539 170.2
12.276666 2.1205482 -0.58098853 170.2
4.7082276 0.81325209 -1.99572 170.2
12.802911 2.2114468 -0.30164748 170.2
4.936511 0.85268354 -1.9561884 170.2
29.64304 5.1202421 0 170.2
5.2725329 0.91072464 -1.9474627 170.2
29.579885 5.1093335 0.69692731 170.2
5.6386647 0.97396654 -1.9335066 170.2
29.593142 5.1116233 1.4004841 170.2
5.9921017 1.0350157 -1.8974621 170.2
29.405685 5.0792441 2.0866952 170.2
6.541604 1.1299312 -1.9035516 170.2
29.581587 5.1096272 2.8006918 170.2
6.77213 1.16975 -1.7990983 170.2
7.028439 1.2140222 -1.6899993 170.2
8.2951031 1.432813 -1.789288 170.2
8.9767904 1.550561 -1.71636 170.2
10.195635 1.7299542 -1.699023 170.37
11.522455 1.9550837 -1.6425209 170.37
12.23457 2.0759122 -1.4511868 170.37
12.351067 2.095679 -1.1687664 170.37
12.203354 2.070616 -0.8655383 170.37
12.227752 2.0747557 -0.57837981 170.37
4.7178979 0.80051386 -1.9988034 170.37
4.9188151 0.83460468 -1.9481862 170.37
43.673779 7.4103904 0 170.37
5.2696533 0.89413351 -1.9454106 170.37
11.975562 2.031965 0.28201115 170.37
5.6396618 0.95691508 -1.9328663 170.37
6.000793 1.0181904 -1.8992493 170.37
6.533555 1.1085873 -1.9002439 170.37
6.779386 1.1502988 -1.8001113 170.37
6.9399128 1.1775364 -1.6678656 170.37
7.0051408 1.188604 -1.5102705 170.37
8.9832897 1.5242482 -1.7167302 170.37
10.20267 1.70002 -1.6993473 170.53999
11.530159 1.9212129 -1.6427993 170.53999
12.250472 2.041235 -1.4523484 170.53999
12.249195 2.0410223 -1.1585482 170.53999
12.201572 2.033087 -0.86498028 170.53999
2.8529515 0.47537309 -1.2877282 170.53999
12.155027 2.0253317 -0.57465315 170.53999
4.7147908 0.78560209 -1.9964908 170.53999
4.9469972 0.82429343 -1.9583708 170.53999
12.026196 2.003865 0 170.53999
5.2722831 0.87849426 -1.9454106 170.53999
11.983511 1.9967526 0.28205758 170.53999
5.6518211 0.94173473 -1.9360676 170.53999
6.0132036 1.0019501 -1.9022281 170.53999
29.464828 4.9095774 2.0887878 170.53999
6.5349193 1.088881 -1.8996927 170.53999
6.7789521 1.1295429 -1.7990983 170.53999
6.9299383 1.1547011 -1.6646379 170.53999
6.9874101 1.1642773 -1.5056964 170.53999
8.9509373 1.4914501 -1.7096945 170.53999
10.206013 1.6676408 -1.699023 170.72
11.528319 1.8837029 -1.6416858 170.72
12.23918 1.999856 -1.4502577 170.72
12.328262 2.0144119 -1.1654222 170.72
12.235465 1.999249 -0.86693347 170.72
3.0239296 0.49410367 -1.3641948 170.72
12.224424 1.997445 -0.57763451 170.72
4.7208781 0.7713815 -1.9980326 170.72
4.9385304 0.80694538 -1.954006 170.72
51.61945 8.4345083 0 170.72
5.2731624 0.86162347 -1.9447266 170.72
12.001564 1.9610301 0.28233612 170.72
5.6547518 0.92397439 -1.9360676 170.72
6.0163217 0.98305422 -1.9022281 170.72
6.5440001 1.0692756 -1.9013464 170.72
6.8034716 1.1116728 -1.8046699 170.72
6.9335318 1.1329243 -1.6646379 170.72
6.9987559 1.1435819 -1.5073597 170.72
6.9906659 1.14226 -1.3345762 170.72
10.216475 1.6400722 -1.6999958 170.88
11.508113 1.8474214 -1.6380674 170.88
12.225103 1.9625214 -1.4479346 170.88
12.78606 2.052573 -1.2081525 170.88
11.925816 1.9144762 -0.84461141 170.88
4.441433 0.71299249 -2.0027711 170.88
12.267433 1.9693167 -0.57940465 170.88
4.7248363 0.75848782 -1.9988034 170.88
12.540024 2.0130763 -0.29486993 170.88
4.9628382 0.79669476 -1.9627358 170.88
5.2922482 0.8495757 -1.9508829 170.88
11.997123 1.9259232 0.28210399 170.88
5.6554394 0.90787947 -1.9354273 170.88
6.0360093 0.96897316 -1.9075899 170.88
6.5336728 1.0488641 -1.8974875 170.88
6.81037 1.0932829 -1.8056828 170.88
6.890552 1.1061547 -1.653571 170.88
7.0849795 1.1373665 -1.5252402 170.88
7.119966 1.142983 -1.358646 170.88
10.217398 1.609138 -1.6993473 171.05
11.519413 1.8141925 -1.6389024 171.05
12.22891 1.9259311 -1.4477023 171.05
11.905823 1.875048 -0.8427977 171.05
4.4489431 0.7006641 -2.0052116 171.05
12.178494 1.9179912 -0.57493263 171.05
4.7252431 0.74417853 -1.9980326 171.05
12.822457 2.0194089 -0.30136895 171.05
4.9559784 0.7805171 -1.9590983 171.05
12.051458 1.8979843 0 171.05
5.2854633 0.83240765 -1.9474627 171.05
12.022535 1.8934292 0.28256822 171.05
5.6674666 0.8925693 -1.9386284 171.05
6.0426297 0.95165378 -1.9087814 171.05
6.536756 1.0294738 -1.8974875 171.05
6.8365188 1.0766834 -1.8117609 171.05
6.8861141 1.0844941 -1.6517266 171.05
7.0863905 1.1160357 -1.5248244 171.05
7.1310916 1.1230757 -1.3601273 171.05
10.25361 1.5818458 -1.7045351 171.23
12.238827 1.8881092 -1.4481668 171.23
12.146929 1.873932 -1.1466581 171.23
11.97278 1.8470657 -0.84712261 171.23
4.449317 0.68640536 -2.0043981 171.23
12.142996 1.8733252 -0.57297617 171.23
4.7257338 0.72904873 -1.9972618 171.23
13.109343 2.0224054 -0.30796081 171.23
4.9547238 0.76437551 -1.9576434 171.23
5.2899098 0.81608534 -1.9481467 171.23
12.002735 1.8516868 0.28196472 171.23
5.6758604 0.87562674 -1.9405491 171.23
6.0342684 0.93091905 -1.9052069 171.23
6.5589585 1.0118642 -1.9030004 171.23
6.7939754 1.0481207 -1.7996048 171.23
6.9298778 1.0690867 -1.6614101 171.23
7.0067244 1.0809419 -1.5069439 171.23
9.0015879 1.3613621 -1.4957238 171.39999
12.236519 1.8505994 -1.4472377 171.39999
12.536384 1.8959497 -1.1828859 171.39999
11.944672 1.8064618 -0.84475088 171.39999
4.4495273 0.67292774 -2.0035846 171.39999
12.209737 1.8465492 -0.57586432 171.39999
4.7242265 0.71447206 -1.99572 171.39999
13.277398 2.0080175 -0.3117674 171.39999
4.9753904 0.75245702 -1.9649181 171.39999
5.2997408 0.80151045 -1.9508829 171.39999
12.033877 1.8199528 0.28256822 171.39999
5.669066 0.85736567 -1.937348 171.39999
6.0445547 0.91415292 -1.9075899 171.39999
6.5467248 0.99009901 -1.8985901 171.39999
6.8620987 1.0377948 -1.8168259 171.39999
6.9830494 1.0560869 -1.6733991 171.39999
9.0524406 1.3415917 -1.5035057 171.57001
11.376714 1.6860541 -1.6163564 171.57001
12.23606 1.8134112 -1.4465408 171.57001
12.703481 1.8826839 -1.1981202 171.57001
12.034843 1.7835903 -0.85074997 171.57001
4.4460821 0.65891922 -2.0011442 171.57001
12.108445 1.7944983 -0.57083333 171.57001
4.731802 0.70126355 -1.9980326 171.57001
12.608848 1.868659 -0.29593763 171.57001
4.9739151 0.73714525 -1.9634632 171.57001
5.2928004 0.7844047 -1.9474627 171.57001
12.084715 1.7909814 0.28363591 171.57001
5.6697106 0.84026366 -1.9367077 171.57001
6.0434632 0.89565462 -1.9063984 171.57001
6.5382228 0.96897912 -1.8952825 171.57001
7.0048623 1.0381361 -1.8538007 171.57001
6.9072237 1.0236658 -1.6544932 171.57001
9.0231791 1.3099067 -1.4979936 171.74001
10.901468 1.5825804 -1.5481616 171.74001
12.231558 1.7756712 -1.4453793 171.74001
12.533619 1.8195218 -1.1815854 171.74001
11.998619 1.7418551 -0.84782016 171.74001
4.4462094 0.64546204 -2.0003309 171.74001
12.05638 1.7502404 -0.56813145 171.74001
4.7338619 0.68722093 -1.9980326 171.74001
12.930931 1.8772002 -0.30336508 171.74001
4.9687057 0.72131354 -1.9605533 171.74001
5.2988243 0.76923722 -1.9488307 171.74001
5.6740541 0.82370985 -1.937348 171.74001
6.0253105 0.87470222 -1.8998451 171.74001
6.5429716 0.94985175 -1.8958337 171.74001
7.0194001 1.0190154 -1.8568397 171.74001
6.9891934 1.0146303 -1.6733991 171.74001
9.0191097 1.3093159 -1.7171005 171.74001
9.0936842 1.2909845 -1.5090177 171.92
11.345622 1.6106808 -1.6105112 171.92
12.244943 1.7383528 -1.4463085 171.92
12.239593 1.7375932 -1.1533463 171.92
11.984279 1.7013476 -0.84642506 171.92
4.4536424 0.63226116 -2.0027711 171.92
12.582032 1.7862077 -0.59263438 171.92
4.726862 0.67104876 -1.9941783 171.92
4.9746366 0.70622402 -1.9620082 171.92
5.2919111 0.75126588 -1.9454106 171.92
5.6766138 0.80588025 -1.937348 171.92
6.0431509 0.85791564 -1.9046111 171.92
6.5592475 0.93118328 -1.8996927 171.92
7.0244823 0.99723035 -1.8573462 171.92
6.9326158 0.9841885 -1.6591045 171.92
7.0386024 0.99923491 -1.5111022 171.92
9.0212326 1.2806989 -1.7167302 171.92
9.0092916 1.253348 -1.494427 172.08
11.552125 1.6071001 -1.6391808 172.08
12.239912 1.7027831 -1.445147 172.08
12.256231 1.7050534 -1.154461 172.08
12.097669 1.6829946 -0.85409826 172.08
4.4590096 0.62032527 -2.0043981 172.08
12.177365 1.6940818 -0.57334882 172.08
4.7415123 0.65962625 -1.9995743 172.08
4.9784346 0.69258618 -1.9627358 172.08
12.095515 1.682695 0 172.08
5.2939882 0.73648518 -1.9454106 172.08
12.066511 1.6786602 0.28284675 172.08
5.6901021 0.79159147 -1.9411894 172.08
6.0398502 0.84024745 -1.9028239 172.08
6.5542059 0.91180319 -1.8974875 172.08
7.0693994 0.98347557 -1.8684891 172.08
6.906424 0.96080285 -1.6521877 172.08
8.3415184 1.1604493 -1.7901196 172.08
9.0306139 1.2563143 -1.7178411 172.08
9.0075312 1.2226689 -1.4934542 172.27
11.543653 1.5669184 -1.6372323 172.27
12.243523 1.6619176 -1.4449147 172.27
12.271684 1.6657401 -1.1553899 172.27
12.314722 1.671582 -0.86902612 172.27
4.4592319 0.60528952 -2.0035846 172.27
12.450172 1.6899679 -0.58592635 172.27
4.73453 0.64265811 -1.99572 172.27
12.519784 1.6994168 -0.29333803 172.27
4.9733195 0.675071 -1.9598258 172.27
5.3001261 0.71943122 -1.9467787 172.27
5.6870632 0.77195352 -1.9392687 172.27
6.0388198 0.81970036 -1.9016324 172.27
6.5495729 0.88902932 -1.8952825 172.27
7.0726218 0.96002716 -1.8684891 172.27
7.0407052 0.95569485 -1.6835437 172.27
8.3472595 1.1330446 -1.7905354 172.27
9.0386248 1.2268895 -1.7185818 172.27
10.208192 1.3566238 -1.6918896 172.42999
10.972744 1.4582295 -1.5556769 172.42999
10.851989 1.4421816 -1.280213 172.42999
12.288132 1.6330386 -1.1565046 172.42999
12.291654 1.6335067 -0.86707294 172.42999
4.4609046 0.59283465 -2.0035846 172.42999
12.217193 1.6236112 -0.57474631 172.42999
4.7417946 0.63016367 -1.9980326 172.42999
4.9862657 0.66265279 -1.9641907 172.42999
5.3132925 0.70611322 -1.9508829 172.42999
5.681684 0.75507081 -1.9367077 172.42999
6.0429778 0.80308515 -1.9022281 172.42999
6.5596533 0.8717491 -1.8974875 172.42999
7.0599318 0.93823391 -1.8644372 172.42999
6.9970469 0.9298768 -1.6724769 172.42999
8.354269 1.1102457 -1.7913672 172.42999
9.0459127 1.202162 -1.7193223 172.42999
10.253504 1.3298779 -1.6986988 172.61
11.317059 1.4678208 -1.6038308 172.61
10.844646 1.406549 -1.2788192 172.61
12.277403 1.5923773 -1.1550183 172.61
12.249239 1.5887245 -0.86372465 172.61
4.4645572 0.57905239 -2.0043981 172.61
12.228177 1.5859927 -0.5750258 172.61
4.7474113 0.61573851 -1.9995743 172.61
12.144974 1.5752013 -0.28433225 172.61
4.9827805 0.64626586 -1.9620082 172.61
12.160148 1.5771693 0 172.61
5.3136206 0.68917578 -1.9501989 172.61
5.6971812 0.73892355 -1.9411894 172.61
6.0397906 0.78335994 -1.9004409 172.61
6.5642662 0.85138434 -1.8980389 172.61
7.0628443 0.91604984 -1.8644372 172.61
6.9883542 0.90638846 -1.6697102 172.61
6.9240222 0.89804465 -1.4840736 172.61
9.0437975 1.1729791 -1.7182114 172.61
10.218246 1.2944887 -1.6922139 172.78
10.936256 1.3854491 -1.5492749 172.78
10.862566 1.3761137 -1.2804453 172.78
12.459874 1.5784671 -1.1717389 172.78
12.218271 1.5478599 -0.86121345 172.78
4.4698806 0.56626248 -2.0060251 172.78
12.165442 1.5411671 -0.57185817 172.78
4.7418938 0.60072219 -1.9964908 172.78
12.185299 1.5436828 -0.28516781 172.78
4.9865241 0.63171297 -1.9627358 172.78
12.839381 1.6265446 0 172.78
5.3231001 0.67435175 -1.952935 172.78
12.068267 1.5288566 0.28242895 172.78
5.7049875 0.72273082 -1.9431101 172.78
6.0420885 0.76543611 -1.9004409 172.78
6.5629487 0.83142078 -1.8969363 172.78
7.0655313 0.89508998 -1.8644372 172.78
7.780663 0.98568577 -1.8583076 172.78
9.0394382 1.1451524 -1.7167302 172.78
10.163064 1.2586719 -1.6824867 172.94
10.89291 1.3490617 -1.5425947 172.94
10.836796 1.3421121 -1.2769607 172.94
12.687551 1.5713238 -1.1927325 172.94
12.305706 1.5240332 -0.86707294 172.94
4.4678183 0.55332893 -2.0043981 172.94
12.47503 1.5450037 -0.58620584 172.94
4.7435527 0.58747804 -1.9964908 172.94
4.9919667 0.61824352 -1.9641907 172.94
12.957009 1.6046956 0 172.94
5.3249626 0.65948427 -1.952935 172.94
12.048677 1.4922007 0.28187189 172.94
5.7145052 0.70772821 -1.9456711 172.94
6.0650444 0.75114173 -1.9069941 172.94
6.5747848 0.81427187 -1.8996927 172.94
7.062243 0.87464243 -1.8629177 172.94
7.7814536 0.96371502 -1.8578465 172.94
7.0028553 0.8672874 -1.4998749 172.94
7.0355182 0.87133265 -1.3356872 172.94
10.217911 1.2328843 -1.690917 173.12
10.969847 1.3236122 -1.5528935 173.12
12.567872 1.5164286 -1.181028 173.12
12.350049 1.4901462 -0.86986321 173.12
4.4695344 0.53929013 -2.0043981 173.12
12.43222 1.5000609 -0.58396983 173.12
4.7435427 0.57235175 -1.99572 173.12
12.668675 1.5285914 -0.29626259 173.12
4.9938841 0.60255772 -1.9641907 173.12
12.954044 1.5630238 0 173.12
5.3288741 0.6429773 -1.953619 173.12
50.549641 6.0992761 1.1821258 173.12
5.7072949 0.68863726 -1.9424698 173.12
6.0768514 0.73322767 -1.9099729 173.12
6.5849452 0.79453379 -1.9018978 173.12
7.0457473 0.85013372 -1.8578526 173.12
7.7728505 0.93786538 -1.8550798 173.12
6.9938922 0.84387696 -1.49738 173.12
7.0401721 0.84946108 -1.3360575 173.12
10.362645 1.2191646 -1.7142624 173.28999
11.325813 1.3324814 -1.6027174 173.28999
12.511007 1.4719193 -1.1752688 173.28999
12.294971 1.4465028 -0.86567783 173.28999
4.4656711 0.52538598 -2.0019577 173.28999
12.442569 1.4638675 -0.58424932 173.28999
4.7415547 0.55784363 -1.9941783 173.28999
12.262101 1.4426355 -0.28665331 173.28999
5.0012007 0.58839101 -1.9663731 173.28999
12.164104 1.4311062 0 173.28999
5.3326249 0.62738299 -1.9543031 173.28999
12.129055 1.4269826 0.28354305 173.28999
5.6980224 0.67037201 -1.9386284 173.28999
6.0486622 0.7116248 -1.9004409 173.28999
6.5681801 0.77274603 -1.896385 173.28999
7.0674539 0.83148557 -1.8629177 173.28999
7.758204 0.91275227 -1.8509297 173.28999
9.0687933 1.066943 -1.7204332 173.28999
10.384071 1.1886234 -1.7171805 173.47
11.186302 1.2804517 -1.5823982 173.47
12.149333 1.390686 -1.4300474 173.47
12.436432 1.4235491 -1.1678374 173.47
12.218185 1.3985673 -0.85995781 173.47
4.461854 0.51073074 -1.9995173 173.47
12.345878 1.4131837 -0.57949781 173.47
4.7469506 0.54336464 -1.99572 173.47
12.183141 1.3945558 -0.28470361 173.47
5.0048757 0.57288826 -1.9671006 173.47
51.217552 5.8626704 0 173.47
5.3364367 0.61084074 -1.9549872 173.47
5.7132773 0.6539762 -1.9431101 173.47
6.0565586 0.69327027 -1.9022281 173.47
6.5724854 0.75232631 -1.8969363 173.47
7.0661869 0.80883837 -1.8619046 173.47
7.7649002 0.88881731 -1.8518519 173.47
9.0662422 1.0377768 -1.7193223 173.47
10.393436 1.158464 -1.7181532 173.64
11.546323 1.286966 -1.6327788 173.64
12.149458 1.354192 -1.4295828 173.64
12.33571 1.3749518 -1.1579908 173.64
12.26987 1.3676133 -0.86330611 173.64
4.4651656 0.49769232 -2.0003309 173.64
12.274566 1.3681368 -0.57595748 173.64
4.7558784 0.53009552 -1.9988034 173.64
12.195173 1.3592876 -0.28488928 173.64
5.0102563 0.55844873 -1.9685556 173.64
12.170632 1.3565521 0 173.64
5.3307543 0.59417176 -1.952251 173.64
12.109726 1.3497635 0.28289315 173.64
5.6907125 0.63429314 -1.934787 173.64
6.0566912 0.67508554 -1.9016324 173.64
6.565135 0.73175722 -1.8941799 173.64
7.0627871 0.78722608 -1.8603852 173.64
7.7771735 0.8668524 -1.8541576 173.64
8.3466873 0.93033105 -1.7851298 173.64
9.0556078 1.0093482 -1.7167302 173.64
10.338162 1.1194327 -1.708426 173.82001
11.583782 1.2543104 -1.6375107 173.82001
12.165502 1.3172998 -1.4309766 173.82001
12.559724 1.3599869 -1.1786128 173.82001
12.311793 1.3331406 -0.86595684 173.82001
4.4612575 0.48307207 -1.9978904 173.82001
4.7483463 0.51415855 -1.9949492 173.82001
5.0138383 0.5429064 -1.969283 173.82001
12.16688 1.3174492 0 173.82001
5.3382001 0.5780288 -1.9543031 173.82001
12.127821 1.3132198 0.28321812 173.82001
5.7115145 0.61845189 -1.9411894 173.82001
6.0530877 0.65543801 -1.8998451 173.82001
6.5712242 0.71154261 -1.8952825 173.82001
7.0633016 0.76482552 -1.8598787 173.82001
7.7856631 0.84304398 -1.855541 173.82001
8.3456793 0.90368342 -1.7842982 173.82001
9.0743666 0.98258686 -1.7196927 173.82001
10.331434 1.0895238 -1.7068048 173.98
11.573453 1.2205036 -1.6355623 173.98
12.149378 1.281239 -1.4286536 173.98
12.341671 1.3015176 -1.1578051 173.98
12.188484 1.2853631 -0.85702801 173.98
4.464406 0.47080365 -1.9987038 173.98
12.266574 1.2935982 -0.57521218 173.98
4.7460933 0.50050956 -1.9934075 173.98
12.232851 1.2900419 -0.28558561 173.98
5.0134821 0.52870762 -1.9685556 173.98
12.180456 1.2845165 0 173.98
5.3341861 0.56252819 -1.952251 173.98
12.137406 1.2799765 0.28335738 173.98
5.7113347 0.60230124 -1.9405491 173.98
6.058692 0.63893253 -1.9010366 173.98
6.5865688 0.69460094 -1.8991414 173.98
7.084651 0.74712723 -1.8649436 173.98
7.8015347 0.82272774 -1.8587688 173.98
9.0848932 0.95806712 -1.7211739 173.98
10.33051 1.0602659 -1.7061563 174.14
11.527561 1.1831244 -1.6286036 174.14
12.184525 1.2505516 -1.4323704 174.14
12.378933 1.2705045 -1.1609634 174.14
12.26546 1.2588582 -0.86219001 174.14
4.4766088 0.45945412 -2.0035846 174.14
12.454966 1.278308 -0.58387667 174.14
4.7511439 0.48763087 -1.9949492 174.14
12.821176 1.3158938 -0.29923356 174.14
5.0130854 0.5145151 -1.967828 174.14
12.182007 1.250293 0 174.14
5.337606 0.54782206 -1.952935 174.14
12.216516 1.253835 0.28512141 174.14
5.7129946 0.58634984 -1.9405491 174.14
6.0585532 0.62181604 -1.9004409 174.14
6.592308 0.67659765 -1.9002439 174.14
7.080936 0.72674769 -1.8634242 174.14
7.8038015 0.80093861 -1.8587688 174.14
9.0699368 0.93088764 -1.7178411 174.14
10.406453 1.0350335 -1.7181532 174.32001
11.517426 1.1455317 -1.6266552 174.32001
12.285253 1.2219003 -1.4437531 174.32001
12.485906 1.2418574 -1.1706241 174.32001
12.358694 1.2292049 -0.86846811 174.32001
4.4689393 0.44448403 -1.9995173 174.32001
12.494704 1.2427325 -0.58555365 174.32001
4.7489796 0.47233704 -1.9934075 174.32001
5.0128236 0.49857911 -1.9671006 174.32001
5.3280797 0.5299347 -1.9488307 174.32001
5.7034955 0.56727391 -1.9367077 174.32001
6.0756755 0.6042912 -1.9052069 174.32001
6.5867486 0.65512288 -1.8980389 174.32001
7.063931 0.70258379 -1.8583591 174.32001
7.8043427 0.77622569 -1.8583076 174.32001
9.0610819 0.90122187 -1.7156193 174.32001
10.415371 1.0047209 -1.719126 174.49001
11.491203 1.1085012 -1.62248 174.49001
12.358029 1.1921198 -1.4518837 174.49001
12.323034 1.1887439 -1.1550183 174.49001
12.431793 1.1992354 -0.87335104 174.49001
4.4775133 0.43192422 -2.0027711 174.49001
12.40885 1.1970222 -0.58136117 174.49001
4.7411757 0.45735845 -1.9895532 174.49001
12.502579 1.2060637 -0.29162043 174.49001
5.0179896 0.48406136 -1.9685556 174.49001
5.3352404 0.51466507 -1.9508829 174.49001
5.7108116 0.55089462 -1.9386284 174.49001
6.0812426 0.58662832 -1.9063984 174.49001
6.5886636 0.63557678 -1.8980389 174.49001
7.0486517 0.67994964 -1.8538007 174.49001
7.8201714 0.75437444 -1.8615354 174.49001
6.9536514 0.67078537 -1.4849052 174.49001
9.0891485 0.87678653 -1.7204332 174.49001
10.436161 0.97364509 -1.7220441 174.67
11.530125 1.0757067 -1.6274903 174.67
12.373581 1.1543972 -1.4532776 174.67
12.463517 1.1627879 -1.1678374 174.67
12.298431 1.1473862 -0.86372465 174.67
4.4679327 0.41683725 -1.9978904 174.67
12.897912 1.2033149 -0.60409385 174.67
4.738914 0.44211853 -1.9880116 174.67
12.231573 1.1411486 -0.28521425 174.67
5.0213404 0.46846759 -1.969283 174.67
12.242834 1.1421993 0 174.67
5.3368311 0.49790138 -1.9508829 174.67
12.217637 1.1398485 0.28488928 174.67
5.7144008 0.53312689 -1.9392687 174.67
6.0735507 0.56663388 -1.9034196 174.67
6.5887136 0.61469615 -1.8974875 174.67
6.9756222 0.65079296 -1.834047 174.67
6.8032713 0.63471341 -1.6189871 174.67
7.0063682 0.65366137 -1.4957167 174.67
9.1055565 0.84950584 -1.7230254 174.67
10.419349 0.94090116 -1.7188017 174.84
11.556935 1.0436289 -1.6308304 174.84
12.394757 1.119287 -1.4553683 174.84
12.542277 1.1326085 -1.1748972 174.84
12.347484 1.115018 -0.86693347 174.84
4.4709697 0.40374315 -1.9987038 174.84
12.616894 1.1393466 -0.59077102 174.84
4.745719 0.42855388 -1.9903241 174.84
12.274733 1.1084484 -0.28614268 174.84
5.0208526 0.45339936 -1.9685556 174.84
5.3476439 0.48290965 -1.9543031 174.84
5.723506 0.51685125 -1.9418297 174.84
6.0695009 0.5480957 -1.9016324 174.84
6.5885935 0.59497148 -1.8969363 174.84
6.9332023 0.62609076 -1.8223975 174.84
7.0086389 0.63290292 -1.6674045 174.84
7.1544042 0.64606601 -1.5269035 174.84
9.1217394 0.82372278 -1.7256175 174.84
10.428151 0.90867716 -1.7197745 175.02
11.605537 1.011271 -1.6372323 175.02
12.388317 1.0794801 -1.4542067 175.02
12.416824 1.081964 -1.1628213 175.02
12.432417 1.0833228 -0.87265348 175.02
4.4776769 0.39017102 -2.0011442 175.02
12.916964 1.1255447 -0.60465288 175.02
4.7433648 0.41332227 -1.9887824 175.02
12.266202 1.0688393 -0.28586414 175.02
5.0315323 0.43843231 -1.9721929 175.02
47.601627 4.1478601 0 175.02
5.3416452 0.46545461 -1.9515669 175.02
5.6967874 0.49640059 -1.9322262 175.02
6.0826049 0.53001958 -1.9052069 175.02
6.5827694 0.57360232 -1.8947312 175.02
6.9833226 0.60850531 -1.83506 175.02
6.8419199 0.5961839 -1.6272873 175.02
7.0004859 0.61000091 -1.4936376 175.02
9.1125336 0.7940383 -1.7233957 175.02
10.45818 0.88187438 -1.7243139 175.17999
11.631998 0.98085529 -1.6405725 175.17999
12.383366 1.0442135 -1.4532776 175.17999
12.352331 1.0415965 -1.1565046 175.17999
12.34593 1.0410568 -0.86637539 175.17999
4.4823899 0.37797254 -2.0027711 175.17999
12.46019 1.0506916 -0.58313131 175.17999
4.7426615 0.39991963 -1.9880116 175.17999
5.0364499 0.42469299 -1.9736478 175.17999
12.244545 1.0325075 0 175.17999
5.3504152 0.45116779 -1.9543031 175.17999
5.694375 0.48017183 -1.9309456 175.17999
6.091671 0.51367337 -1.9075899 175.17999
6.5881767 0.55554068 -1.8958337 175.17999
6.9676428 0.58753872 -1.8305014 175.17999
6.7931376 0.57282376 -1.6152982 175.17999
6.9319844 0.58453184 -1.478668 175.17999
9.1029654 0.76759738 -1.7211739 175.17999
10.449097 0.84805685 -1.7223684 175.36
11.560009 0.93821931 -1.6299953 175.36
12.396485 1.0061084 -1.454439 175.36
12.365466 1.0035908 -1.1574335 175.36
12.478398 1.0127566 -0.87544376 175.36
4.4799132 0.36359325 -2.0011442 175.36
4.7457337 0.38516748 -1.9887824 175.36
5.0340452 0.40856704 -1.9721929 175.36
5.3630457 0.43526897 -1.9584073 175.36
5.7392921 0.46580541 -1.9456711 175.36
6.0932546 0.4945333 -1.9075899 175.36
6.5573139 0.5321967 -1.8864621 175.36
6.9405274 0.56329864 -1.822904 175.36
6.6649413 0.54093182 -1.5844033 175.36
7.0234814 0.57003123 -1.4977958 175.36
7.1287222 0.57857269 -1.3475369 175.36
9.8690405 0.77324414 -1.626393 175.52
11.633665 0.91150337 -1.6400158 175.52
12.399246 0.97148699 -1.454439 175.52
12.386088 0.97045606 -1.1591055 175.52
4.4754467 0.35065341 -1.9987038 175.52
4.7467909 0.3719134 -1.9887824 175.52
12.257122 0.96035153 -0.28544635 175.52
5.0333095 0.39436224 -1.9714655 175.52
12.26242 0.96076655 0 175.52
5.3567457 0.41970363 -1.9556712 175.52
12.217256 0.95722795 0.28451791 175.52
5.7519045 0.45066452 -1.9495125 175.52
6.0908051 0.47721756 -1.9063984 175.52
6.5606909 0.51403332 -1.8870133 175.52
6.9189267 0.54210126 -1.8168259 175.52
6.6567249 0.52155769 -1.5820976 175.52
6.783206 0.5314675 -1.4462337 175.52
7.1263914 0.55835623 -1.3467964 175.52
9.9206209 0.7459352 -1.6344991 175.7
