# .PCD v0.7 - Point Cloud Data file format
VERSION 0.7
FIELDS x y z intensity
SIZE 4 4 4 4
TYPE F F F F
COUNT 1 1 1 1
WIDTH 1221
HEIGHT 1
VIEWPOINT 0 0 0 1 0 0 0
POINTS 1221
DATA ascii
19.18033 -10.869392 -0.51184446 209.53999
4.4670167 -2.531435 -2.0049295 209.53999
31.052458 -17.597265 0 209.53999
4.7482929 -2.6908329 -1.9864529 209.53999
14.812307 -8.3940573 0.39527982 209.53999
5.0690141 -2.8725839 -1.9687195 209.53999
30.917936 -17.521032 1.657252 209.53999
5.4232793 -3.0733438 -1.9451221 209.53999
14.771528 -8.3709478 1.1872551 209.53999
5.8374362 -3.3080444 -1.9239488 209.53999
30.925123 -17.525105 3.316242 209.53999
6.2585077 -3.5466633 -1.8831778 209.53999
30.906227 -17.514397 4.1542459 209.53999
6.3492908 -3.5981097 -1.7291944 209.53999
30.888105 -17.504128 4.989634 209.53999
7.0258551 -3.9815149 -1.7165189 209.53999
30.749836 -17.42577 5.8068328 209.53999
7.6947217 -4.3605585 -1.6663688 209.53999
30.857544 -17.486809 6.6825094 209.53999
7.9329014 -4.5266824 -1.5005875 209.71001
8.1502352 -4.6506977 -1.3188043 209.71001
13.172915 -7.5167456 -1.7736212 209.71001
13.930031 -7.948772 -1.4963033 209.71001
13.835143 -7.8946266 -1.1138713 209.71001
3.9688637 -2.2647181 -2.0344968 209.71001
14.803028 -8.4469223 -0.79480642 209.71001
4.1931405 -2.3926952 -2.0165329 209.71001
14.802966 -8.446888 -0.39569762 209.71001
4.4578681 -2.5437543 -2.0042019 209.71001
31.020954 -17.701216 0 209.71001
4.7353911 -2.7021151 -1.9844009 209.71001
14.768234 -8.4270687 0.39476919 209.71001
5.0670514 -2.8913674 -1.9712805 209.71001
14.78047 -8.4340506 0.79359525 209.71001
5.409162 -3.0865829 -1.9433348 209.71001
14.765688 -8.4256153 1.1887898 209.71001
5.8292651 -3.3263028 -1.9245 209.71001
30.8678 -17.613823 3.3156848 209.71001
6.251318 -3.5671349 -1.8841908 209.71001
30.850676 -17.604052 4.1537814 209.71001
6.3419676 -3.6188617 -1.7301167 209.71001
30.842915 -17.599623 4.9907475 209.71001
7.0174088 -4.004283 -1.7173506 209.71001
30.692854 -17.513996 5.80586 209.71001
7.6698008 -4.3765512 -1.6637768 209.71001
30.810646 -17.581209 6.6836205 209.71001
7.8852115 -4.5305357 -1.4941027 209.88
8.1243801 -4.667953 -1.3168559 209.88
13.152277 -7.556787 -1.7738534 209.88
13.809693 -7.9345126 -1.4858994 209.88
3.9684637 -2.2801249 -2.0377505 209.88
14.7779 -8.4908066 -0.79480642 209.88
4.1860228 -2.4051261 -2.0165329 209.88
14.781306 -8.4927635 -0.39579046 209.88
4.4503012 -2.5569699 -2.0042019 209.88
14.77315 -8.4880781 0 209.88
4.7289829 -2.7170897 -1.9850849 209.88
14.743166 -8.47085 0.39476919 209.88
5.0551648 -2.904501 -1.9699999 209.88
5.408257 -3.1073742 -1.9463136 209.88
14.751003 -8.4753532 1.1896269 209.88
5.8177032 -3.3426261 -1.9239488 209.88
30.810223 -17.702356 3.3151274 209.88
6.2356734 -3.5827756 -1.8826712 209.88
30.798307 -17.695509 4.1537814 209.88
6.3362646 -3.6405711 -1.7315 209.88
30.788841 -17.690071 4.990469 209.88
7.0038009 -4.0241117 -1.7169348 209.88
30.649311 -17.609901 5.8074813 209.88
7.6635981 -4.4032054 -1.6652579 209.88
30.741304 -17.662758 6.6799173 209.88
7.8939419 -4.5667591 -1.4983178 210.05
8.101923 -4.687079 -1.3154641 210.05
13.140115 -7.6017456 -1.7752472 210.05
13.768853 -7.9654799 -1.4840416 210.05
3.9600995 -2.2909746 -2.036937 210.05
14.752643 -8.5346165 -0.79480642 210.05
4.1772709 -2.4166114 -2.0157621 210.05
19.101858 -11.0507 -0.51235509 210.05
4.441082 -2.5692301 -2.0034745 210.05
30.90325 -17.877975 0 210.05
4.722527 -2.7320499 -1.9857689 210.05
30.912231 -17.883171 0.82913601 210.05
5.051445 -2.9223337 -1.9719206 210.05
30.771132 -17.801542 1.657811 210.05
5.3973608 -3.1224511 -1.9457178 210.05
14.718884 -8.5150862 1.1890688 210.05
5.8110881 -3.3617983 -1.9250513 210.05
30.761011 -17.795689 3.3154988 210.05
6.2250156 -3.6012614 -1.8826712 210.05
30.742229 -17.784822 4.1533165 210.05
6.3304887 -3.6622789 -1.7328835 210.05
30.739647 -17.783329 4.9910259 210.05
6.9952168 -4.046834 -1.7177664 210.05
30.598635 -17.70175 5.8078055 210.05
7.6470971 -4.4239559 -1.6645173 210.05
30.68536 -17.751923 6.6791768 210.05
7.8607993 -4.5806065 -1.4947511 210.23
8.0529337 -4.6925659 -1.3098972 210.23
13.119601 -7.6449895 -1.7757119 210.23
13.735158 -8.003684 -1.4831127 210.23
3.9576185 -2.3061638 -2.0393775 210.23
14.730936 -8.5839386 -0.79508591 210.23
4.1744418 -2.4325101 -2.0180745 210.23
19.058409 -11.105622 -0.51212299 210.23
4.4394274 -2.5869212 -2.0063844 210.23
30.850388 -17.976986 0 210.23
4.7090492 -2.7440341 -1.9837168 210.23
30.831711 -17.966103 0.82848608 210.23
5.0406022 -2.9372349 -1.9712805 210.23
30.721958 -17.902149 1.6581837 210.23
5.3858752 -3.1384308 -1.9451221 210.23
14.683441 -8.556262 1.1883713 210.23
5.800498 -3.3800378 -1.9250513 210.23
30.703232 -17.891235 3.3153131 210.23
6.2103281 -3.6188517 -1.8816583 210.23
30.686205 -17.881313 4.1533165 210.23
6.3223147 -3.6841083 -1.7338057 210.23
30.685339 -17.88081 4.9913039 210.23
6.9740176 -4.0638652 -1.7156873 210.23
30.539461 -17.795805 5.807157 210.23
7.6161799 -4.4380627 -1.6608143 210.23
30.654911 -17.863079 6.684731 210.23
7.8982401 -4.6338696 -1.5044783 210.39999
8.0116434 -4.7004032 -1.3054436 210.39999
13.100286 -7.6858926 -1.7761765 210.39999
13.69761 -8.0363398 -1.4816264 210.39999
13.821669 -8.1091251 -1.120568 210.39999
3.942879 -2.3132734 -2.0353103 210.39999
14.701956 -8.6255865 -0.79489958 210.39999
4.1672063 -2.4448853 -2.0180745 210.39999
19.035723 -11.168192 -0.51240152 210.39999
4.4285188 -2.5981965 -2.0049295 210.39999
14.688608 -8.6177549 0 210.39999
4.7041287 -2.759896 -1.9850849 210.39999
14.686375 -8.6164455 0.39532626 210.39999
5.0351334 -2.9540954 -1.9725609 210.39999
30.673876 -17.996256 1.6584631 210.39999
5.3748932 -3.1534309 -1.9445263 210.39999
14.645944 -8.5927238 1.1873947 210.39999
5.7921019 -3.398206 -1.9256026 210.39999
30.6586 -17.987293 3.316242 210.39999
6.1995635 -3.6372621 -1.8816583 210.39999
30.63644 -17.974293 4.1537814 210.39999
6.3197489 -3.7077746 -1.7361113 210.39999
30.63386 -17.972778 4.9915824 210.39999
6.9720531 -4.0904794 -1.7181822 210.39999
30.495037 -17.891331 5.8087783 210.39999
7.6029782 -4.4606409 -1.6608143 210.39999
30.598385 -17.951965 6.6839905 210.39999
7.8963509 -4.66431 -1.5067481 210.57001
7.9874301 -4.7181096 -1.3037736 210.57001
13.079135 -7.7257385 -1.7764088 210.57001
13.653131 -8.0647926 -1.4793969 210.57001
3.9422905 -2.3286788 -2.038564 210.57001
14.678019 -8.670186 -0.79499274 210.57001
4.1615229 -2.4581776 -2.0188453 210.57001
18.999058 -11.222589 -0.51230866 210.57001
4.4223943 -2.6122723 -2.005657 210.57001
14.662973 -8.6612988 0 210.57001
4.6959195 -2.7738411 -1.9850849 210.57001
14.634922 -8.6447287 0.39462993 210.57001
5.0247149 -2.9680581 -1.9719206 210.57001
30.618626 -18.086172 1.65837 210.57001
5.3655128 -3.1693647 -1.9445263 210.57001
30.599566 -18.074913 2.4851441 210.57001
5.7819939 -3.4153767 -1.9256026 210.57001
30.603382 -18.077168 3.3160563 210.57001
6.1920757 -3.6576087 -1.8826712 210.57001
30.584686 -18.066124 4.1540136 210.57001
6.3103952 -3.727499 -1.7365724 210.57001
30.575281 -18.06057 4.9907475 210.57001
6.9548326 -4.1081629 -1.7169348 210.57001
30.438419 -17.979727 5.8081298 210.57001
7.5947866 -4.4861784 -1.6619252 210.57001
30.534832 -18.036676 6.6817689 210.57001
7.8858695 -4.6897359 -1.5073966 210.74001
7.9785028 -4.7448254 -1.3046087 210.74001
13.057862 -7.7655263 -1.7766411 210.74001
13.615449 -8.0971241 -1.4779106 210.74001
14.665003 -8.7212944 -1.1931148 210.74001
3.9322231 -2.3384979 -2.036937 210.74001
14.650512 -8.712677 -0.79489958 210.74001
4.1542106 -2.4705141 -2.0188453 210.74001
18.951929 -11.270735 -0.51193726 210.74001
4.4210291 -2.6291912 -2.0085669 210.74001
14.638929 -8.7057886 0 210.74001
4.6892838 -2.7887228 -1.9857689 210.74001
14.619519 -8.6942453 0.39490846 210.74001
5.0191436 -2.9848907 -1.9732012 210.74001
30.568262 -18.178982 1.6585563 210.74001
5.3642902 -3.19015 -1.9475051 210.74001
14.59984 -8.6825428 1.1878133 210.74001
5.7734871 -3.4334998 -1.9261539 210.74001
30.553034 -18.169926 3.3164279 210.74001
6.1828594 -3.6769538 -1.8831778 210.74001
30.532656 -18.157806 4.1542459 210.74001
6.3093443 -3.7521744 -1.7393391 210.74001
30.526667 -18.154245 4.9915824 210.74001
6.9442945 -4.1297803 -1.7173506 210.74001
30.386635 -18.070969 5.808454 210.74001
7.5949564 -4.5167298 -1.6648877 210.74001
30.48625 -18.130209 6.6828799 210.74001
7.9185033 -4.7428813 -1.5164753 210.92
11.0032 -6.5904965 -1.80257 210.92
13.041923 -7.811614 -1.7778026 210.92
13.581403 -8.1347418 -1.4769818 210.92
14.639243 -8.7683487 -1.1932542 210.92
3.9248571 -2.3508396 -2.036937 210.92
14.61964 -8.7566071 -0.79471326 210.92
4.144846 -2.4826045 -2.0180745 210.92
18.925003 -11.335355 -0.51216936 210.92
4.411149 -2.6421101 -2.0078394 210.92
14.614939 -8.7537909 0 210.92
4.6821122 -2.8044064 -1.9864529 210.92
14.59728 -8.7432137 0.39504772 210.92
5.0081158 -2.9996703 -1.9725609 210.92
30.511 -18.274925 1.6585563 210.92
5.349328 -3.2040434 -1.9457178 210.92
14.569068 -8.7263165 1.1875342 210.92
5.7659707 -3.4535966 -1.9272563 210.92
30.495802 -18.265821 3.3164279 210.92
6.1729369 -3.6973538 -1.8836843 210.92
30.480574 -18.256701 4.154943 210.92
6.3042035 -3.7759774 -1.7411835 210.92
30.47798 -18.255146 4.9929743 210.92
6.9346423 -4.1535864 -1.7181822 210.92
30.336485 -18.170397 5.8097506 210.92
7.5672407 -4.5324883 -1.6619252 210.92
30.444317 -18.234985 6.6862125 210.92
7.9119887 -4.7690506 -1.5177723 211.08
10.964397 -6.6089287 -1.7992299 211.08
13.021759 -7.8490291 -1.7780349 211.08
13.596154 -8.1952524 -1.481069 211.08
14.616409 -8.8102245 -1.1933937 211.08
3.918277 -2.3617909 -2.036937 211.08
14.600263 -8.8004923 -0.79499274 211.08
4.1363163 -2.4932168 -2.0173037 211.08
18.894987 -11.389192 -0.51221579 211.08
4.4005628 -2.6524944 -2.0063844 211.08
14.590437 -8.794569 0 211.08
4.6710434 -2.8155301 -1.9850849 211.08
4.9964743 -3.0116878 -1.9712805 211.08
30.446159 -18.351805 1.657811 211.08
5.3469005 -3.2229116 -1.9481008 211.08
30.449429 -18.353777 2.4861207 211.08
5.7612438 -3.472662 -1.9289103 211.08
30.451496 -18.355022 3.3171711 211.08
6.1642451 -3.7155762 -1.8841908 211.08
30.395445 -18.321238 4.1502967 211.08
6.2986345 -3.796581 -1.7425669 211.08
30.379389 -18.311558 4.9851804 211.08
6.9213409 -4.1719255 -1.7177664 211.08
30.287315 -18.256062 5.8100748 211.08
7.57307 -4.5647631 -1.6659986 211.08
30.368027 -18.30471 6.6806579 211.08
7.7729907 -4.7204795 -1.4941027 211.27
10.954271 -6.6524477 -1.8011782 211.27
13.019429 -7.9066029 -1.7812871 211.27
13.533159 -8.2185879 -1.4771676 211.27
14.588819 -8.8596811 -1.1935333 211.27
3.9026153 -2.3700294 -2.0328698 211.27
14.572707 -8.8498974 -0.79508591 211.27
4.1327577 -2.5097933 -2.0196164 211.27
18.860535 -11.453863 -0.51230866 211.27
4.3933349 -2.6680396 -2.0071118 211.27
14.557774 -8.8408279 0 211.27
4.6632872 -2.8319798 -1.9857689 211.27
14.552143 -8.837409 0.39527982 211.27
4.9896989 -3.0302072 -1.9725609 211.27
30.391966 -18.456816 1.6581837 211.27
5.3296561 -3.2366607 -1.9457178 211.27
30.396925 -18.459827 2.4868183 211.27
5.7431231 -3.4877563 -1.9267051 211.27
30.385355 -18.452801 3.3166137 211.27
6.1469288 -3.7329843 -1.8826712 211.27
30.327732 -18.417807 4.1493673 211.27
6.2943268 -3.8224981 -1.7448725 211.27
30.330347 -18.419395 4.9871287 211.27
6.9057961 -4.1938391 -1.7173506 211.27
30.224924 -18.355371 5.8097506 211.27
7.522613 -4.5684271 -1.6582222 211.27
30.328999 -18.418577 6.685472 211.27
7.7244148 -4.7205563 -1.4872936 211.42999
10.900163 -6.661324 -1.795333 211.42999
12.985435 -7.9356785 -1.7796609 211.42999
14.565723 -8.9014273 -1.1936728 211.42999
3.9006586 -2.3837764 -2.0353103 211.42999
14.553051 -8.8936825 -0.79536545 211.42999
4.1304574 -2.5242114 -2.0219288 211.42999
18.825064 -11.504401 -0.51221579 211.42999
4.3826876 -2.6783547 -2.005657 211.42999
14.550095 -8.8918762 0 211.42999
4.6521535 -2.8430312 -1.9844009 211.42999
14.525702 -8.8769684 0.39523342 211.42999
4.9812174 -3.0441291 -1.9725609 211.42999
30.360764 -18.554115 1.6593016 211.42999
5.3238549 -3.2535224 -1.9469093 211.42999
14.49933 -8.8608522 1.1882318 211.42999
5.7350016 -3.5047829 -1.9272563 211.42999
30.338804 -18.540697 3.3171711 211.42999
6.1414332 -3.7531619 -1.8841908 211.42999
30.288046 -18.509678 4.1509938 211.42999
6.2886095 -3.8431048 -1.7462559 211.42999
30.253443 -18.488531 4.9829535 211.42999
6.8973966 -4.2151475 -1.7181822 211.42999
30.180285 -18.443821 5.8110476 211.42999
7.5333052 -4.603765 -1.6634064 211.42999
30.275768 -18.502174 6.6851015 211.42999
7.6860161 -4.7303181 -1.4827542 211.61
10.902796 -6.7100677 -1.7992299 211.61
12.979049 -7.9878869 -1.7822163 211.61
14.537686 -8.9471426 -1.1936728 211.61
3.8993747 -2.3998497 -2.038564 211.61
14.521636 -8.9372644 -0.79517907 211.61
4.1256504 -2.5391097 -2.0234704 211.61
18.797342 -11.568726 -0.51244789 211.61
4.3790116 -2.6950395 -2.0078394 211.61
14.508462 -8.9291563 0 211.61
4.6480007 -2.8605874 -1.9864529 211.61
14.497742 -8.9225588 0.39523342 211.61
4.9748564 -3.0617492 -1.9738413 211.61
30.295517 -18.645216 1.658929 211.61
5.3119817 -3.2692311 -1.9463136 211.61
30.28005 -18.635696 2.4862602 211.61
5.7239628 -3.5227826 -1.9272563 211.61
30.285496 -18.639048 3.3177283 211.61
6.129612 -3.7724373 -1.8841908 211.61
30.23144 -18.60578 4.151226 211.61
6.2864494 -3.8689623 -1.7490226 211.61
30.196898 -18.58452 4.983232 211.61
6.8807878 -4.2347445 -1.7173506 211.61
30.128916 -18.542681 5.8123446 211.61
7.5238261 -4.6304989 -1.6645173 211.61
30.222515 -18.600286 6.6862125 211.61
7.6702695 -4.7520628 -1.48243 211.78
10.876103 -6.738215 -1.7981164 211.78
12.958669 -8.0284538 -1.7826809 211.78
14.316027 -8.8693962 -1.5711741 211.78
14.51786 -8.9944401 -1.1942308 211.78
3.8937902 -2.4123709 -2.0393775 211.78
14.496753 -8.9813633 -0.79527229 211.78
4.1133919 -2.5484238 -2.021158 211.78
18.764635 -11.6255 -0.51249433 211.78
4.3741636 -2.7099829 -2.0092943 211.78
14.490405 -8.9774313 0 211.78
4.6394925 -2.8743656 -1.9864529 211.78
14.467805 -8.9634285 0.39514056 211.78
4.9641395 -3.0754986 -1.9732012 211.78
30.246857 -18.739231 1.6593016 211.78
5.3038812 -3.2859831 -1.9469093 211.78
30.2348 -18.731762 2.4870973 211.78
5.7118511 -3.538738 -1.9267051 211.78
30.240215 -18.735117 3.3188431 211.78
6.1299052 -3.7977405 -1.8877363 211.78
30.17948 -18.697489 4.1516905 211.78
6.2799053 -3.8906722 -1.7504059 211.78
30.146673 -18.677164 4.984067 211.78
6.8681931 -4.2551417 -1.7173506 211.78
30.07712 -18.634073 5.812993 211.78
7.5100541 -4.6528025 -1.6645173 211.78
30.168865 -18.690912 6.6865826 211.78
7.6728821 -4.7852435 -1.4856724 211.95
10.845981 -6.7641673 -1.7964464 211.95
12.928048 -8.0626631 -1.7817518 211.95
14.276131 -8.9034033 -1.569688 211.95
14.491109 -9.0374756 -1.1942308 211.95
3.8897159 -2.4258471 -2.0410044 211.95
14.475126 -9.0275078 -0.79555178 211.95
4.1073785 -2.5615938 -2.0219288 211.95
18.735147 -11.684299 -0.51263362 211.95
4.3629417 -2.7209775 -2.0078394 211.95
14.467099 -9.0225019 0 211.95
4.6293492 -2.8871241 -1.9857689 211.95
14.444539 -9.0084324 0.39523342 211.95
4.9549928 -3.0902138 -1.9732012 211.95
30.192818 -18.82995 1.6593949 211.95
5.2924881 -3.3006952 -1.9463136 211.95
14.436936 -9.0036907 1.1897664 211.95
5.7029576 -3.5566871 -1.9272563 211.95
30.182804 -18.823706 3.3186572 211.95
6.1218934 -3.8179593 -1.8887494 211.95
30.125555 -18.788002 4.1519227 211.95
6.2699852 -3.9103177 -1.750867 211.95
30.091125 -18.766529 4.984067 211.95
6.8621774 -4.2796421 -1.7190138 211.95
30.018351 -18.721142 5.8123446 211.95
7.5028868 -4.679225 -1.6659986 211.95
30.11661 -18.782423 6.6873236 211.95
7.6411009 -4.7951121 -1.4821057 212.11
7.5843024 -4.7594686 -1.2584032 212.11
7.4757576 -4.6913524 -1.0321151 212.11
13.741818 -8.6235685 -1.5135812 212.11
14.465816 -9.0779076 -1.1942308 212.11
3.8782837 -2.4337862 -2.038564 212.11
14.451552 -9.0689573 -0.79564494 212.11
4.1033354 -2.5750155 -2.0234704 212.11
18.707527 -11.73976 -0.51277286 212.11
4.3600607 -2.7361214 -2.0100217 212.11
14.433377 -9.0575514 0 212.11
4.6196766 -2.8990414 -1.9850849 212.11
14.431182 -9.0561733 0.39555836 212.11
4.9463439 -3.1040387 -1.9732012 212.11
30.153654 -18.922688 1.6601402 212.11
5.2881017 -3.3185062 -1.9481008 212.11
30.129791 -18.907711 2.4873765 212.11
5.6930032 -3.5725989 -1.9272563 212.11
30.135181 -18.911095 3.3192146 212.11
6.1112075 -3.8350399 -1.8887494 212.11
30.084749 -18.879446 4.1535492 212.11
6.2672834 -3.9329839 -1.7531726 212.11
30.052023 -18.858908 4.9862938 212.11
6.8535137 -4.300868 -1.7198455 212.11
29.97097 -18.808044 5.8133173 212.11
7.464819 -4.6844878 -1.660444 212.11
30.067371 -18.86854 6.6880641 212.11
7.5884585 -4.797224 -1.4749725 212.3
7.5517368 -4.7740102 -1.2556198 212.3
9.5338249 -6.0270338 -1.3190073 212.3
13.691264 -8.6552582 -1.511166 212.3
14.440691 -9.1290264 -1.1946493 212.3
3.8748248 -2.4495625 -2.0410044 212.3
14.418022 -9.1146955 -0.79545861 212.3
4.0900941 -2.5856502 -2.021158 212.3
18.670183 -11.8028 -0.51281929 212.3
4.3509631 -2.7505648 -2.0100217 212.3
14.410024 -9.1096392 0 212.3
4.613215 -2.9163535 -1.9864529 212.3
14.419662 -9.1157322 0.39606899 212.3
4.9360232 -3.1204243 -1.9732012 212.3
30.095806 -19.025778 1.6604197 212.3
5.2722268 -3.3329635 -1.9463136 212.3
30.073671 -19.011786 2.4879344 212.3
5.6778746 -3.5894034 -1.9261539 212.3
30.079037 -19.015179 3.3199577 212.3
6.1000919 -3.856318 -1.8892558 212.3
30.025335 -18.98123 4.1540136 212.3
6.2607865 -3.9579048 -1.755017 212.3
29.989319 -18.95846 4.9862938 212.3
6.8359065 -4.3214808 -1.7190138 212.3
29.915108 -18.911547 5.8146143 212.3
7.4342918 -4.6997643 -1.6571113 212.3
30.009621 -18.971294 6.6891751 212.3
7.5891767 -4.8292542 -1.4778906 212.47
7.582654 -4.8251038 -1.2631351 212.47
13.576481 -8.6391821 -1.5013194 212.47
14.415225 -9.1729031 -1.1947889 212.47
3.8644569 -2.4590869 -2.0393775 212.47
14.394285 -9.1595793 -0.79564494 212.47
4.0870752 -2.6007466 -2.0234704 212.47
18.633394 -11.85707 -0.51277286 212.47
4.3412113 -2.7624621 -2.0092943 212.47
14.394743 -9.1598701 0 212.47
4.6045418 -2.9300282 -1.9864529 212.47
14.370623 -9.1445217 0.39546552 212.47
4.9251447 -3.1340389 -1.9725609 212.47
30.025738 -19.106411 1.6596743 212.47
5.2671466 -3.3516667 -1.9481008 212.47
14.363045 -9.139699 1.190464 212.47
5.6704435 -3.6082983 -1.9272563 212.47
30.029205 -19.108616 3.3207009 212.47
6.0886235 -3.8744004 -1.8892558 212.47
29.982292 -19.078764 4.1558719 212.47
6.257225 -3.9816875 -1.7573227 212.47
29.942961 -19.053736 4.9879642 212.47
6.821404 -4.340694 -1.718598 212.47
29.863859 -19.003401 5.815587 212.47
7.4286056 -4.7270775 -1.6589627 212.47
29.953199 -19.060251 6.6891751 212.47
7.5739675 -4.8530722 -1.4778906 212.64999
7.5908041 -4.8638606 -1.2670319 212.64999
9.1656618 -5.8729615 -1.2730117 212.64999
13.579453 -8.701129 -1.5046636 212.64999
14.384656 -9.2170687 -1.1946493 212.64999
3.8644042 -2.4761438 -2.0434449 212.64999
14.370485 -9.2079887 -0.79592443 212.64999
4.0788846 -2.6135736 -2.0234704 212.64999
18.606153 -11.922023 -0.51305139 212.64999
4.3325114 -2.7760868 -2.0092943 212.64999
14.357475 -9.1996517 0 212.64999
4.6000609 -2.9475212 -1.9885051 212.64999
4.9216557 -3.1535852 -1.9751219 212.64999
29.979023 -19.209267 1.6604197 212.64999
5.2581987 -3.3692274 -1.9486966 212.64999
29.973774 -19.205904 2.4893296 212.64999
5.6606984 -3.6271319 -1.9278077 212.64999
29.970703 -19.203936 3.3208866 212.64999
6.0764213 -3.8935094 -1.8892558 212.64999
29.902136 -19.160002 4.1530843 212.64999
6.2512398 -4.0055251 -1.7591672 212.64999
29.889626 -19.151985 4.9890771 212.64999
6.812675 -4.3652687 -1.7198455 212.64999
29.812319 -19.102451 5.8172083 212.64999
7.4186831 -4.7535725 -1.6600736 212.64999
29.90641 -19.162741 6.6921372 212.64999
7.4948525 -4.8338065 -1.4652452 212.82001
9.0764132 -5.8538342 -1.2630227 212.82001
13.528474 -8.7251921 -1.5018768 212.82001
14.358922 -9.2607889 -1.1947889 212.82001
3.8524342 -2.484628 -2.0410044 212.82001
14.346459 -9.2527514 -0.79611075 212.82001
4.0649085 -2.6216633 -2.0203872 212.82001
18.57406 -11.979343 -0.51314425 212.82001
4.32269 -2.7879195 -2.0085669 212.82001
30.013241 -19.357044 0 212.82001
4.5865574 -2.9581008 -1.9864529 212.82001
29.976589 -19.333406 0.82816112 212.82001
4.9090924 -3.1661201 -1.9738413 212.82001
29.96051 -19.323036 1.6625625 212.82001
5.2433653 -3.3817096 -1.9469093 212.82001
29.92001 -19.296915 2.4896085 212.82001
5.6515274 -3.6449535 -1.9283589 212.82001
29.925306 -19.300331 3.3221872 212.82001
6.0664682 -3.91257 -1.8897623 212.82001
29.86352 -19.260483 4.1556396 212.82001
6.2458696 -4.0282745 -1.7610116 212.82001
29.839327 -19.244879 4.9901905 212.82001
6.8013372 -4.3865237 -1.7202613 212.82001
29.757168 -19.191891 5.8175325 212.82001
7.3896809 -4.765976 -1.6567409 212.82001
29.860985 -19.258846 6.6947293 212.82001
7.519402 -4.879426 -1.4727027 212.98
7.4653187 -4.8443308 -1.0407102 212.98
9.3930368 -6.0952487 -1.0446627 212.98
14.3397 -9.3051949 -1.195347 212.98
3.8454807 -2.4953763 -2.0410044 212.98
14.320565 -9.292778 -0.79611075 212.98
4.0622158 -2.6360183 -2.0226996 212.98
18.538857 -12.030076 -0.51309782 212.98
4.3180132 -2.8020082 -2.0100217 212.98
14.314318 -9.2887239 0 212.98
4.578279 -2.9708974 -1.9864529 212.98
14.303752 -9.281868 0.39588332 212.98
4.9050002 -3.1829107 -1.975762 212.98
14.30213 -9.2808161 0.79508591 212.98
5.2306986 -3.3942599 -1.9457178 212.98
14.28447 -9.2693558 1.190743 212.98
5.6413269 -3.6607213 -1.9283589 212.98
29.877975 -19.388159 3.3229303 212.98
6.0522728 -3.9273889 -1.8887494 212.98
29.84461 -19.366508 4.1605182 212.98
6.2394938 -4.0488787 -1.762395 212.98
29.825342 -19.354006 4.996871 212.98
6.7923431 -4.407629 -1.7210929 212.98
29.708426 -19.278137 5.8185053 212.98
7.3845868 -4.7919426 -1.6585925 212.98
29.803789 -19.340019 6.6939888 212.98
7.5635128 -4.9418859 -1.4843755 213.16
7.7047195 -5.0341487 -1.2934748 213.16
7.6778884 -5.0166173 -1.0725355 213.16
9.2504797 -6.0441251 -1.0309147 213.16
14.310396 -9.3501987 -1.195347 213.16
3.8360927 -2.5064456 -2.0401909 213.16
14.292973 -9.3388147 -0.79620391 213.16
4.0523696 -2.6477578 -2.0219288 213.16
18.514362 -12.097008 -0.51346922 213.16
4.3076296 -2.8145406 -2.0092943 213.16
29.906218 -19.540276 0 213.16
4.5704961 -2.9862938 -1.9871371 213.16
29.873053 -19.518606 0.82848608 213.16
4.8918042 -3.1962318 -1.9744816 213.16
29.852009 -19.504856 1.6629351 213.16
5.2280006 -3.4158974 -1.9486966 213.16
29.820005 -19.483946 2.4908643 213.16
5.6314077 -3.6794777 -1.9289103 213.16
29.818584 -19.483017 3.3231161 213.16
6.0415244 -3.9474416 -1.8892558 213.16
29.791937 -19.465607 4.1616797 213.16
6.2332597 -4.0727186 -1.7642394 213.16
29.771025 -19.451942 4.9979844 213.16
6.7751875 -4.426806 -1.7202613 213.16
29.657627 -19.37785 5.8204508 213.16
7.3694959 -4.8151183 -1.6585925 213.16
29.74782 -19.436781 6.6950998 213.16
7.519136 -4.944787 -1.4785391 213.33
7.8386793 -5.1549273 -1.3185259 213.33
9.1543064 -6.0201192 -1.0221828 213.33
14.284257 -9.393713 -1.1954864 213.33
3.8316922 -2.5198243 -2.0418179 213.33
14.265201 -9.3811817 -0.79620391 213.33
4.0383282 -2.6557136 -2.0188453 213.33
18.475048 -12.149691 -0.51337636 213.33
4.3023729 -2.8293567 -2.0107493 213.33
29.848108 -19.628922 0 213.33
4.5694671 -3.0050049 -1.9905572 213.33
29.836725 -19.621437 0.82908958 213.33
4.8807163 -3.2096908 -1.9738413 213.33
29.817375 -19.608711 1.6642395 213.33
5.2162471 -3.4303451 -1.9481008 213.33
29.767065 -19.575626 2.4912827 213.33
5.6156468 -3.693001 -1.9272563 213.33
29.767302 -19.575781 3.3238592 213.33
6.0330186 -3.9674759 -1.8902688 213.33
29.747328 -19.562647 4.163538 213.33
6.2309046 -4.097611 -1.7670062 213.33
29.723106 -19.546717 4.9996543 213.33
6.762023 -4.4468889 -1.7202613 213.33
29.60165 -19.466845 5.820775 213.33
7.3568187 -4.8380427 -1.6589627 213.33
29.696589 -19.529278 6.6965809 213.33
7.4987144 -4.9614091 -1.4772421 213.49001
9.0743504 -6.0039043 -1.015123 213.49001
14.261297 -9.4357672 -1.1957655 213.49001
3.8246405 -2.5305145 -2.0418179 213.49001
14.248945 -9.4275951 -0.79676294 213.49001
4.0339742 -2.6690168 -2.0203872 213.49001
18.447718 -12.205648 -0.51356202 213.49001
4.2975626 -2.843416 -2.0122042 213.49001
14.246083 -9.4257011 0 213.49001
4.5563555 -3.0146425 -1.9885051 213.49001
14.235575 -9.4187489 0.39630109 213.49001
4.8733144 -3.2243533 -1.9744816 213.49001
14.208958 -9.4011374 0.79452693 213.49001
5.2066474 -3.4448981 -1.9481008 213.49001
14.204724 -9.3983374 1.191022 213.49001
5.6085191 -3.7107902 -1.9283589 213.49001
29.719164 -19.663227 3.3246024 213.49001
6.0235295 -3.9853754 -1.8907753 213.49001
29.685957 -19.641256 4.1626086 213.49001
6.2210603 -4.1160688 -1.7674673 213.49001
29.679968 -19.637293 5.0016031 213.49001
6.7544732 -4.4689932 -1.7215087 213.49001
29.561987 -19.559233 5.8236933 213.49001
7.3252497 -4.8466387 -1.6548895 213.49001
29.656689 -19.621891 6.6999135 213.49001
7.4658914 -4.9716039 -1.4736755 213.66
8.8143568 -5.8695588 -1.2383988 213.66
8.9703074 -5.9734077 -1.0054623 213.66
14.234899 -9.479146 -1.195905 213.66
3.8186364 -2.5428641 -2.0426314 213.66
14.22091 -9.4698305 -0.79676294 213.66
4.0321817 -2.6850657 -2.0234704 213.66
18.423071 -12.268087 -0.51388699 213.66
4.2875562 -2.8551221 -2.0114768 213.66
29.757866 -19.816029 0 213.66
4.5505195 -3.0302315 -1.9898732 213.66
29.724884 -19.794065 0.82913601 213.66
4.8716116 -3.2440495 -1.9776827 213.66
29.70228 -19.779013 1.6641463 213.66
5.1964035 -3.4603314 -1.9481008 213.66
29.663788 -19.753382 2.4921198 213.66
5.5990844 -3.7284801 -1.9289103 213.66
29.670635 -19.75794 3.325717 213.66
6.0116782 -4.0032301 -1.8907753 213.66
29.645737 -19.74136 4.165164 213.66
6.2201591 -4.1420593 -1.7706951 213.66
29.631464 -19.731855 5.003273 213.66
6.7362986 -4.4857616 -1.7202613 213.66
29.505466 -19.647953 5.8240175 213.66
7.3075652 -4.8661728 -1.6541488 213.66
29.593431 -19.70653 6.6988029 213.66
7.4182224 -4.9754477 -1.4675149 213.85001
7.7043962 -5.1673861 -1.3037736 213.85001
8.7700977 -5.8821588 -1.2349142 213.85001
8.9140663 -5.9787188 -1.0013751 213.85001
14.203386 -9.5262985 -1.195905 213.85001
3.8086655 -2.5544953 -2.0418179 213.85001
14.192747 -9.5191631 -0.79694927 213.85001
4.0247884 -2.6994503 -2.0242414 213.85001
18.370663 -12.321317 -0.51356202 213.85001
4.2796121 -2.870362 -2.0122042 213.85001
29.690329 -19.913486 0 213.85001
4.5357633 -3.0421643 -1.9878211 213.85001
29.659082 -19.892529 0.82913601 213.85001
4.8592534 -3.2591312 -1.9770426 213.85001
29.644823 -19.882965 1.6646122 213.85001
5.1833143 -3.476481 -1.9475051 213.85001
29.618004 -19.864977 2.493794 213.85001
5.5818996 -3.7438142 -1.9272563 213.85001
29.606606 -19.857332 3.3259029 213.85001
6.0015836 -4.0252991 -1.8917884 213.85001
29.576809 -19.837347 4.1646996 213.85001
6.2096219 -4.1648316 -1.7716174 213.85001
29.580671 -19.839937 5.0057783 213.85001
6.7246356 -4.5102544 -1.7210929 213.85001
29.45326 -19.754482 5.8266115 213.85001
7.2897558 -4.8892841 -1.6537786 213.85001
29.544241 -19.815504 6.7025061 213.85001
7.3690767 -4.9742484 -1.4607059 214.02
7.6775393 -5.182466 -1.3018252 214.02
8.7394352 -5.8992629 -1.2330558 214.02
8.8715296 -5.9884291 -0.99858832 214.02
14.181673 -9.5728636 -1.196463 214.02
3.7995551 -2.5647624 -2.0410044 214.02
14.169409 -9.5645847 -0.79722875 214.02
4.0137019 -2.7093151 -2.0226996 214.02
18.337339 -12.378007 -0.51365489 214.02
4.2710767 -2.8830473 -2.0122042 214.02
14.158284 -9.5570755 0 214.02
4.5345054 -3.0608661 -1.9912412 214.02
14.149499 -9.5511456 0.39634752 214.02
4.8511324 -3.2745945 -1.9776827 214.02
14.139603 -9.5444651 0.79555178 214.02
5.1777239 -3.4950492 -1.9492923 214.02
14.132064 -9.5393763 1.1922777 214.02
5.5739536 -3.7625108 -1.9283589 214.02
29.557461 -19.951775 3.3270175 214.02
5.989614 -4.0430884 -1.8917884 214.02
29.532639 -19.935019 4.16679 214.02
6.2053027 -4.1886816 -1.7739229 214.02
29.497051 -19.910997 5.0016031 214.02
6.7079811 -4.527998 -1.7202613 214.02
29.397791 -19.843994 5.82726 214.02
7.281733 -4.9152904 -1.6552597 214.02
29.485317 -19.903076 6.7025061 214.02
7.3501487 -4.9951558 -1.4600574 214.2
7.6710486 -5.2132392 -1.3034953 214.2
8.7192163 -5.9255729 -1.2328235 214.2
8.8394966 -6.0073156 -0.99710202 214.2
14.15648 -9.6207342 -1.1968815 214.2
3.7975235 -2.5807943 -2.0442584 214.2
14.137638 -9.6079292 -0.79713559 214.2
4.0097494 -2.725023 -2.0250123 214.2
18.313246 -12.445669 -0.51407266 214.2
4.2619982 -2.896451 -2.0122042 214.2
29.57971 -20.10235 0 214.2
4.527976 -3.0772092 -1.9926094 214.2
29.56678 -20.093563 0.82997161 214.2
4.8408213 -3.2898185 -1.9776827 214.2
29.542641 -20.077158 1.6657301 214.2
5.1682978 -3.5123713 -1.9498881 214.2
29.507654 -20.053381 2.4947705 214.2
5.5652862 -3.7821646 -1.9294615 214.2
29.507811 -20.053488 3.3285038 214.2
5.9832835 -4.0662351 -1.8938143 214.2
29.481367 -20.035517 4.168416 214.2
6.1985512 -4.2125311 -1.7757674 214.2
29.449097 -20.013584 5.004108 214.2
6.6937227 -4.5490494 -1.7202613 214.2
29.3402 -19.939579 5.8282328 214.2
7.2743831 -4.9436655 -1.6571113 214.2
29.429148 -20.000029 6.7039871 214.2
7.3466983 -5.0247412 -1.462327 214.37
7.7487283 -5.2997074 -1.319361 214.37
8.6917582 -5.9446888 -1.2314297 214.37
8.818346 -6.0312681 -0.99673045 214.37
14.131166 -9.6649475 -1.1971606 214.37
3.7898495 -2.5920503 -2.0442584 214.37
14.120612 -9.6577291 -0.79778779 214.37
3.9986 -2.7348244 -2.0234704 214.37
18.276237 -12.49995 -0.51407266 214.37
4.2549233 -2.9101355 -2.0129316 214.37
29.521585 -20.191154 0 214.37
4.5126209 -3.0863867 -1.9898732 214.37
29.510332 -20.183458 0.83006442 214.37
4.8341665 -3.3063064 -1.9789633 214.37
29.481293 -20.163597 1.665637 214.37
5.1562777 -3.5266128 -1.9492923 214.37
29.456259 -20.146475 2.4954681 214.37
5.55404 -3.7986605 -1.9294615 214.37
29.464619 -20.152193 3.3303616 214.37
5.9743867 -4.0861545 -1.8948274 214.37
29.393915 -20.103836 4.1644673 214.37
6.2020884 -4.2418904 -1.7803786 214.37
6.6834254 -4.5710988 -1.7210929 214.37
29.292313 -20.034346 5.830502 214.37
7.2564387 -4.9630084 -1.6563706 214.37
29.3713 -20.088367 6.7043571 214.37
7.3521485 -5.0586615 -1.466218 214.53
8.6702137 -5.9655595 -1.2307328 214.53
8.7981882 -6.0536127 -0.99635887 214.53
14.109052 -9.7077637 -1.1975791 214.53
3.787112 -2.6057305 -2.0466988 214.53
14.095233 -9.6982555 -0.79788095 214.53
3.993988 -2.7480721 -2.0250123 214.53
18.254438 -12.560005 -0.51444405 214.53
4.2452455 -2.9209502 -2.0122042 214.53
14.09078 -9.6951914 0 214.53
4.5101776 -3.1032374 -1.9926094 214.53
14.072159 -9.6823788 0.39657962 214.53
4.8217931 -3.3176451 -1.9776827 214.53
14.06067 -9.6744747 0.79592443 214.53
5.1511278 -3.5442448 -1.9510796 214.53
14.056456 -9.6715746 1.1931148 214.53
5.5386586 -3.8108861 -1.9278077 214.53
29.406588 -20.233267 3.3301759 214.53
5.9581704 -4.0995321 -1.8933078 214.53
29.386757 -20.219622 4.1714363 214.53
6.1789961 -4.2514715 -1.7771508 214.53
29.38555 -20.218792 5.0130153 214.53
6.6722465 -4.5908537 -1.7215087 214.53
29.239504 -20.118303 5.8311505 214.53
7.2603617 -4.9955077 -1.660444 214.53
29.326422 -20.178108 6.7069497 214.53
7.3306165 -5.0759597 -1.464921 214.7
8.6527119 -5.9914217 -1.4791317 214.7
8.64431 -5.9856038 -1.2295713 214.7
8.7441702 -6.0547504 -0.99227166 214.7
14.085108 -9.7529907 -1.1979977 214.7
3.7823682 -2.619036 -2.0483258 214.7
14.069681 -9.7423086 -0.79806727 214.7
3.9827824 -2.7578092 -2.0234704 214.7
18.228598 -12.62208 -0.51476902 214.7
4.2350283 -2.9324727 -2.0114768 214.7
29.424536 -20.374514 0 214.7
4.5024953 -3.1176755 -1.9932934 214.7
29.400169 -20.357643 0.83025014 214.7
4.8134856 -3.3330157 -1.978323 214.7
29.387665 -20.348984 1.6669413 214.7
5.1343107 -3.5551653 -1.9486966 214.7
29.349579 -20.322611 2.4963052 214.7
5.5320692 -3.8305862 -1.9294615 214.7
29.357885 -20.328363 3.3314764 214.7
5.945981 -4.1171923 -1.8933078 214.7
29.336433 -20.313509 4.1728301 214.7
6.1807542 -4.279757 -1.7813009 214.7
29.328688 -20.308146 5.0135717 214.7
6.6585956 -4.61063 -1.7215087 214.7
29.19104 -20.212835 5.8334203 214.7
7.2648983 -5.0304542 -1.6648877 214.7
29.282581 -20.27622 6.7106524 214.7
7.3065386 -5.0933213 -1.4632998 214.88
7.6070132 -5.3027792 -1.3032169 214.88
8.6238337 -6.0115952 -1.229339 214.88
8.716938 -6.0764976 -0.99134272 214.88
14.057672 -9.7994738 -1.1982768 214.88
3.7636294 -2.6235917 -2.0426314 214.88
14.040645 -9.7876043 -0.79816043 214.88
3.9771266 -2.7724185 -2.0250123 214.88
18.183933 -12.675854 -0.51462972 214.88
4.2273231 -2.9468284 -2.0122042 214.88
29.375149 -20.477146 0 214.88
4.491137 -3.1307304 -1.9926094 214.88
29.34263 -20.454479 0.83043581 214.88
4.8014369 -3.3470376 -1.9776827 214.88
29.328508 -20.444635 1.6672208 214.88
5.1231165 -3.5712776 -1.9486966 214.88
29.295408 -20.42156 2.4971423 214.88
5.521585 -3.8490462 -1.9300128 214.88
29.298777 -20.42391 3.3320336 214.88
5.9250808 -4.1303196 -1.8907753 214.88
29.280621 -20.411251 4.1739917 214.88
6.1736646 -4.3036051 -1.7831453 214.88
29.259869 -20.396786 5.0127368 214.88
6.6440783 -4.631526 -1.7215087 214.88
29.133871 -20.308956 5.8347173 214.88
7.2538958 -5.0566244 -1.6659986 214.88
29.233248 -20.378229 6.7139854 214.88
7.3082714 -5.1287208 -1.4668664 215.06
7.7978263 -5.4722753 -1.3388453 215.06
8.6815042 -6.0924134 -0.98948491 215.06
14.030083 -9.8458815 -1.1985557 215.06
3.7628465 -2.6406503 -2.0466988 215.06
14.013097 -9.8339615 -0.79834676 215.06
3.9668868 -2.7838392 -2.0242414 215.06
18.142385 -12.73177 -0.51458329 215.06
4.2271943 -2.9665153 -2.0165691 215.06
14.015229 -9.8354578 0 215.06
4.4828176 -3.1459038 -1.9932934 215.06
13.998361 -9.8236198 0.39704385 215.06
4.792449 -3.3631935 -1.978323 215.06
13.985296 -9.8144522 0.79676294 215.06
5.1134343 -3.5884514 -1.9492923 215.06
13.974557 -9.8069153 1.1938123 215.06
5.5126128 -3.8685825 -1.9311153 215.06
29.24099 -20.52043 3.3327768 215.06
5.9215784 -4.155582 -1.8938143 215.06
29.222855 -20.507704 4.1749206 215.06
6.169672 -4.3296862 -1.785912 215.06
29.211857 -20.499985 5.0155201 215.06
6.6326976 -4.6546235 -1.7223405 215.06
29.074772 -20.403784 5.83569 215.06
7.2218862 -5.0680981 -1.6622955 215.06
29.154604 -20.459806 6.7106524 215.06
7.3107548 -5.1629052 -1.4704331 215.23
7.7912621 -5.5022426 -1.3405153 215.23
8.6243505 -6.0905757 -0.98502606 215.23
14.000808 -9.8874655 -1.1985557 215.23
3.7475328 -2.6465333 -2.0426314 215.23
13.992017 -9.881258 -0.79881263 215.23
3.9616244 -2.7977262 -2.0257831 215.23
18.132296 -12.805151 -0.51537246 215.23
4.2168522 -2.9779699 -2.0158417 215.23
29.27075 -20.671206 0 215.23
4.473464 -3.1591909 -1.9932934 215.23
29.238367 -20.648335 0.83103931 215.23
4.7824492 -3.3773983 -1.978323 215.23
29.216127 -20.632629 1.6679661 215.23
5.1027646 -3.6036074 -1.9492923 215.23
29.184782 -20.610493 2.4983978 215.23
5.4979696 -3.8827035 -1.9300128 215.23
29.191362 -20.615139 3.3340774 215.23
5.8981595 -4.1653204 -1.8902688 215.23
29.171616 -20.601194 4.1763144 215.23
6.1599774 -4.3502183 -1.7868342 215.23
29.149286 -20.585426 5.0152421 215.23
6.6220541 -4.6765399 -1.7231721 215.23
29.023777 -20.49679 5.8376355 215.23
7.2260823 -5.1031089 -1.6667391 215.23
29.101799 -20.551889 6.7125039 215.23
7.3211432 -5.2028656 -1.475621 215.39999
7.747458 -5.5058317 -1.3357835 215.39999
7.4467993 -5.2921648 -1.0683541 215.39999
13.981167 -9.9358978 -1.1993928 215.39999
3.7441318 -2.660816 -2.0450718 215.39999
13.965894 -9.9250441 -0.79899895 215.39999
3.9578187 -2.8126755 -2.0280955 215.39999
18.084442 -12.851944 -0.51509392 215.39999
4.2095165 -2.9915476 -2.0165691 215.39999
29.215811 -20.762596 0 215.39999
4.4640708 -3.1724498 -1.9932934 215.39999
29.175343 -20.733837 0.83099288 215.39999
4.775496 -3.3937683 -1.9796034 215.39999
29.174322 -20.733112 1.6690842 215.39999
5.0904942 -3.6176257 -1.9486966 215.39999
29.136511 -20.70624 2.4995139 215.39999
5.4911265 -3.9023404 -1.9316666 215.39999
29.134937 -20.705122 3.3346348 215.39999
5.8968143 -4.1906481 -1.8938143 215.39999
29.118458 -20.693411 4.1774759 215.39999
6.1565609 -4.3752403 -1.789601 215.39999
29.09938 -20.679853 5.0171905 215.39999
6.60496 -4.6939006 -1.7223405 215.39999
28.966051 -20.585102 5.838284 215.39999
7.2141132 -5.1268034 -1.6674798 215.39999
29.055111 -20.648392 6.715837 215.39999
7.3137002 -5.2303047 -1.4772421 215.57001
7.6505389 -5.4711909 -1.3218662 215.57001
9.6478319 -6.8995314 -0.82940447 215.57001
3.7362206 -2.6719134 -2.0450718 215.57001
13.939634 -9.9687624 -0.79918528 215.57001
3.9464538 -2.8222592 -2.0265539 215.57001
18.04623 -12.905545 -0.51509392 215.57001
4.1960754 -3.0007732 -2.0143867 215.57001
29.160585 -20.853844 0 215.57001
4.454638 -3.1856811 -1.9932934 215.57001
13.923376 -9.9571352 0.39741522 215.57001
4.7684879 -3.4101269 -1.980884 215.57001
13.908759 -9.946682 0.79741508 215.57001
5.0797381 -3.6327136 -1.9486966 215.57001
13.896448 -9.9378786 1.1946493 215.57001
5.4779601 -3.9174974 -1.9311153 215.57001
29.083094 -20.798426 3.3357494 215.57001
5.8875022 -4.2103767 -1.8948274 215.57001
29.071474 -20.790115 4.1795669 215.57001
6.1498842 -4.398016 -1.7914455 215.57001
29.050783 -20.775318 5.0194173 215.57001
6.5894127 -4.7123394 -1.7219247 215.57001
28.9209 -20.682434 5.8415265 215.57001
7.2068634 -5.1539021 -1.6693313 215.57001
29.001711 -20.740225 6.7176881 215.57001
7.3045568 -5.2565932 -1.4785391 215.74001
7.4879842 -5.3885932 -1.2965366 215.74001
8.5762615 -6.1717529 -0.98576921 215.74001
9.6224594 -6.9246302 -0.82898593 215.74001
3.7267935 -2.6819201 -2.0442584 215.74001
13.91486 -10.013579 -0.79946476 215.74001
3.9425564 -2.8371899 -2.0288663 215.74001
18.022467 -12.969543 -0.51551175 215.74001
4.1901779 -3.0153863 -2.0158417 215.74001
29.106699 -20.946114 0 215.74001
4.4451666 -3.1988842 -1.9932934 215.74001
29.074514 -20.922953 0.83164275 215.74001
4.7568111 -3.4231536 -1.9802437 215.74001
29.060507 -20.912872 1.6696432 215.74001
5.0766854 -3.6533453 -1.9516753 215.74001
29.02932 -20.890429 2.5009091 215.74001
5.4663124 -3.9337335 -1.9311153 215.74001
29.030954 -20.891605 3.336864 215.74001
5.8655615 -4.221046 -1.8917884 215.74001
29.014498 -20.879763 4.1802635 215.74001
6.1383877 -4.4173803 -1.7919066 215.74001
28.993835 -20.864893 5.0202522 215.74001
6.5690503 -4.7272992 -1.7202613 215.74001
28.869019 -20.77507 5.843472 215.74001
7.1819682 -5.1683745 -1.6671095 215.74001
28.954403 -20.836515 6.7210212 215.74001
7.3138289 -5.2943292 -1.4834027 215.89999
7.4985766 -5.4280639 -1.3009901 215.89999
8.5589933 -6.1956782 -0.98576921 215.89999
9.5513687 -6.9140377 -0.82452154 215.89999
3.7178094 -2.6912453 -2.0434449 215.89999
13.891698 -10.055912 -0.79974425 215.89999
3.9301333 -2.8449421 -2.0265539 215.89999
17.982939 -13.017477 -0.51541889 215.89999
4.1817412 -3.0270758 -2.0158417 215.89999
29.064295 -21.03904 0 215.89999
4.4423056 -3.215693 -1.9960296 215.89999
29.028931 -21.013441 0.83201414 215.89999
4.7456985 -3.4353127 -1.9796034 215.89999
29.010086 -20.9998 1.670109 215.89999
5.0633702 -3.6652689 -1.9504838 215.89999
28.982182 -20.979601 2.5018857 215.89999
5.4568634 -3.9501102 -1.9316666 215.89999
28.985405 -20.981934 3.3383503 215.89999
5.8568854 -4.2396779 -1.8928013 215.89999
28.962513 -20.965363 4.1811929 215.89999
6.1354866 -4.4413519 -1.7946733 215.89999
28.964334 -20.966681 5.0252624 215.89999
6.5542388 -4.7444777 -1.7198455 215.89999
28.820482 -20.862551 5.8454175 215.89999
7.1882043 -5.203392 -1.6719234 215.89999
28.912025 -20.928816 6.7247243 215.89999
7.3153696 -5.3325038 -1.4872936 216.09
7.4165168 -5.4062347 -1.2898563 216.09
8.4789114 -6.1806622 -1.227016 216.09
8.5384007 -6.2240267 -0.98576921 216.09
9.3945723 -6.8481283 -0.81294197 216.09
3.7088647 -2.7035592 -2.0434449 216.09
13.863118 -10.105453 -0.80002379 216.09
3.9236603 -2.8601334 -2.0280955 216.09
17.949368 -13.084105 -0.51569742 216.09
4.1686692 -3.0387313 -2.0143867 216.09
13.855557 -10.099942 0 216.09
4.4270616 -3.2270854 -1.9939774 216.09
13.842131 -10.090155 0.39769375 216.09
4.7342806 -3.4510312 -1.9796034 216.09
13.829215 -10.08074 0.79806727 216.09
5.0542736 -3.6842887 -1.9516753 216.09
13.829867 -10.081216 1.1967421 216.09
5.4437342 -3.9681842 -1.9316666 216.09
28.931759 -21.089668 3.3402083 216.09
5.8443575 -4.2602167 -1.8933078 216.09
28.907278 -21.071823 4.1832833 216.09
6.1238704 -4.4639659 -1.7955955 216.09
28.888245 -21.057949 5.0241489 216.09
6.5400505 -4.7673388 -1.7202613 216.09
28.762306 -20.966145 5.8476868 216.09
7.1677332 -5.224885 -1.6711828 216.09
28.84564 -21.026892 6.7254648 216.09
7.2527037 -5.3179021 -1.4775664 216.25
7.3806272 -5.4116998 -1.2862378 216.25
8.4728327 -6.2125378 -1.2286421 216.25
8.5209875 -6.2478461 -0.98576921 216.25
9.3367968 -6.8460226 -0.80959362 216.25
3.7013004 -2.7139058 -2.0434449 216.25
13.838066 -10.14649 -0.80021012 216.25
3.915658 -2.8710792 -2.0280955 216.25
13.834861 -10.14414 -0.39829722 216.25
4.1616693 -3.0514624 -2.0151141 216.25
13.832138 -10.142143 0 216.25
4.4210639 -3.2416582 -1.9953455 216.25
28.916149 -21.202198 0.83247834 216.25
4.7307367 -3.4687197 -1.9821644 216.25
28.895765 -21.187252 1.6709476 216.25
5.0439658 -3.6983886 -1.9516753 216.25
28.871183 -21.169228 2.5034204 216.25
5.4310813 -3.9822335 -1.9311153 216.25
28.880783 -21.176266 3.3411372 216.25
5.8355589 -4.2788086 -1.8943208 216.25
28.857933 -21.159512 4.1846771 216.25
6.1145196 -4.4833512 -1.7965177 216.25
28.850092 -21.153763 5.0277677 216.25
6.5298672 -4.7878966 -1.7210929 216.25
28.714785 -21.054552 5.8499565 216.25
7.1499448 -5.2425566 -1.6704422 216.25
28.794735 -21.113173 6.7273164 216.25
7.2318535 -5.3395796 -1.4769179 216.44
7.3674207 -5.4396744 -1.2870729 216.44
8.49862 -6.2748857 -0.98558342 216.44
9.4938078 -7.0096745 -0.82521909 216.44
3.6966901 -2.7294204 -2.0458853 216.44
13.810772 -10.19707 -0.80058277 216.44
3.9061155 -2.8840482 -2.0280955 216.44
17.87715 -13.199445 -0.51592952 216.44
4.156024 -3.0685658 -2.0172966 216.44
28.890461 -21.331034 0 216.44
4.4102898 -3.2563009 -1.9953455 216.44
28.863375 -21.311035 0.83298898 216.44
4.7161598 -3.4821374 -1.980884 216.44
28.833382 -21.288891 1.6714133 216.44
5.0301375 -3.7139606 -1.9510796 216.44
28.824902 -21.282627 2.505513 216.44
5.4178457 -4.0002217 -1.9311153 216.44
28.821615 -21.280201 3.3424375 216.44
5.8213377 -4.2981367 -1.8943208 216.44
28.798794 -21.263351 4.1863036 216.44
6.1058812 -4.5082269 -1.7983623 216.44
28.78775 -21.255198 5.0291591 216.44
6.5218229 -4.8153343 -1.7231721 216.44
28.646397 -21.150829 5.8502808 216.44
7.1214523 -5.2580657 -1.66785 216.44
28.732468 -21.21438 6.7291679 216.44
7.2159791 -5.3610134 -1.4769179 216.61
7.3417096 -5.4544234 -1.2854028 216.61
8.4256582 -6.259728 -1.2274805 216.61
8.483161 -6.3024492 -0.985955 216.61
9.3336353 -6.9342976 -0.81308144 216.61
3.6885753 -2.7403767 -2.0458853 216.61
13.786871 -10.242768 -0.80095541 216.61
3.8975413 -2.8956251 -2.0280955 216.61
17.836302 -13.251237 -0.51588309 216.61
4.1469011 -3.0808835 -2.0172966 216.61
13.780984 -10.238394 0 216.61
4.403626 -3.2716138 -1.9967136 216.61
13.774061 -10.233251 0.39839008 216.61
4.7042861 -3.4949853 -1.9802437 216.61
13.761212 -10.223705 0.79946476 216.61
5.0175633 -3.7277303 -1.9504838 216.61
13.741008 -10.208694 1.1970211 216.61
5.4121261 -4.0208654 -1.9333204 216.61
28.767939 -21.372747 3.3435524 216.61
5.8132186 -4.3188515 -1.8958404 216.61
28.745144 -21.355814 4.1876974 216.61
6.1002889 -4.5321264 -1.8006679 216.61
28.732508 -21.346426 5.030551 216.61
6.5075073 -4.8346639 -1.7231721 216.61
28.605692 -21.252209 5.8548203 216.61
7.0931988 -5.2697954 -1.6648877 216.61
28.685173 -21.311258 6.7328706 216.61
7.2032022 -5.3847632 -1.4775664 216.78
7.392118 -5.5259876 -1.2970933 216.78
8.4277315 -6.3001618 -1.2305005 216.78
8.4644241 -6.3275914 -0.985955 216.78
9.2219353 -6.8938699 -0.80512923 216.78
3.6789649 -2.7502151 -2.0450718 216.78
13.76122 -10.287218 -0.80123496 216.78
3.8933671 -2.9104915 -2.0304081 216.78
13.764457 -10.289638 -0.39899355 216.78
4.1407256 -3.0954049 -2.0187516 216.78
13.748943 -10.278041 0 216.78
4.3908892 -3.2824147 -1.9953455 216.78
13.740435 -10.27168 0.39829722 216.78
4.6938958 -3.5089278 -1.9802437 216.78
13.734017 -10.266883 0.79965109 216.78
5.015656 -3.7494602 -1.9540583 216.78
28.710884 -21.462858 2.5066292 216.78
5.3970923 -4.0346036 -1.9322178 216.78
28.720348 -21.469933 3.3454101 216.78
5.7988291 -4.3349218 -1.8953339 216.78
28.700747 -21.45528 4.190485 216.78
6.0914912 -4.5537024 -1.8020512 216.78
28.678562 -21.438698 5.0322208 216.78
6.4931335 -4.8539505 -1.7231721 216.78
28.548834 -21.341717 5.8561172 216.78
7.0665126 -5.2825809 -1.6622955 216.78
28.632835 -21.404512 6.7354631 216.78
7.1736341 -5.3978729 -1.4749725 216.96001
7.3794689 -5.5527558 -1.2979283 216.96001
7.6285362 -5.740169 -1.1164405 216.96001
8.4460945 -6.3553491 -0.98614079 216.96001
8.9802303 -6.7572646 -0.78587645 216.96001
3.6659269 -2.7584636 -2.0426314 216.96001
13.730431 -10.3316 -0.80132812 216.96001
3.8842041 -2.9227085 -2.0304081 216.96001
17.774195 -13.374372 -0.51644015 216.96001
4.1324697 -3.1095183 -2.019479 216.96001
28.734034 -21.621214 0 216.96001
4.3850603 -3.299583 -1.9973977 216.96001
28.695938 -21.592546 0.83377814 216.96001
4.6889048 -3.5282137 -1.9828047 216.96001
28.674107 -21.57612 1.673463 216.96001
4.9977498 -3.760607 -1.9516753 216.96001
28.654474 -21.561348 2.5076058 216.96001
5.3828545 -4.0503831 -1.9316666 216.96001
28.663895 -21.568436 3.3467107 216.96001
5.7851815 -4.3531184 -1.8953339 216.96001
28.642725 -21.552507 4.1918788 216.96001
6.0802655 -4.5751567 -1.8029734 216.96001
28.622149 -21.537024 5.0341692 216.96001
6.4762893 -4.8731489 -1.7227563 216.96001
28.497416 -21.443167 5.8593597 216.96001
7.0404592 -5.2976642 -1.6600736 216.96001
28.579584 -21.504995 6.7387958 216.96001
7.1333542 -5.3988285 -1.4697846 217.12
7.4697423 -5.6534214 -1.3165776 217.12
8.4299021 -6.3801122 -0.98632658 217.12
8.9979153 -6.8100085 -0.78908521 217.12
3.6582096 -2.7686899 -2.0426314 217.12
13.711083 -10.377136 -0.80188709 217.12
3.8760273 -2.9335439 -2.0304081 217.12
17.749531 -13.433607 -0.51681155 217.12
4.1222844 -3.1199219 -2.0187516 217.12
13.705253 -10.372724 0 217.12
4.3743305 -3.3106813 -1.9967136 217.12
13.693589 -10.363895 0.39871502 217.12
4.6805449 -3.5424373 -1.9834448 217.12
13.688781 -10.360257 0.80058277 217.12
4.9887509 -3.7757008 -1.9522711 217.12
13.670277 -10.346252 1.1988348 217.12
5.3730559 -4.0665593 -1.9322178 217.12
28.617844 -21.659212 3.3483827 217.12
5.7776313 -4.3727593 -1.8968533 217.12
28.588764 -21.637203 4.1928077 217.12
6.076776 -4.599165 -1.8057401 217.12
28.579266 -21.630014 5.0372314 217.12
6.4564161 -4.8864927 -1.7210929 217.12
28.451586 -21.533382 5.862278 217.12
7.027205 -5.3184905 -1.660444 217.12
28.53039 -21.593023 6.7413878 217.12
7.0859017 -5.3960567 -1.4632998 217.28999
7.3741517 -5.6155643 -1.3026602 217.28999
7.579545 -5.7719755 -1.1141175 217.28999
8.4141035 -6.4075089 -0.98669815 217.28999
8.896718 -6.7750297 -0.78197008 217.28999
3.6456177 -2.776211 -2.0401909 217.28999
13.685002 -10.421404 -0.80216658 217.28999
3.871711 -2.9483855 -2.0327206 217.28999
17.709595 -13.486212 -0.51681155 217.28999
4.1144915 -3.1332679 -2.019479 217.28999
13.671233 -10.410919 0 217.28999
4.3674788 -3.3259227 -1.9980817 217.28999
13.656415 -10.399634 0.39852935 217.28999
4.6730285 -3.558605 -1.9847254 217.28999
13.657982 -10.400827 0.80058277 217.28999
4.983602 -3.7951128 -1.9546541 217.28999
28.550449 -21.741741 2.5094194 217.28999
5.3640256 -4.0848131 -1.9333204 217.28999
28.55979 -21.748854 3.3491259 217.28999
5.766171 -4.3910546 -1.8973598 217.28999
28.546564 -21.738781 4.1960602 217.28999
6.0692964 -4.621891 -1.8075846 217.28999
28.524416 -21.721916 5.0389013 217.28999
6.4465585 -4.9091835 -1.7223405 217.28999
28.398561 -21.626074 5.8645477 217.28999
7.0082664 -5.3369355 -1.6597034 217.28999
28.459942 -21.672817 6.7399068 217.28999
7.0438533 -5.3990812 -1.4581119 217.47
7.3580451 -5.6399083 -1.3029386 217.47
7.4005613 -5.6724963 -1.0904227 217.47
8.3923521 -6.4326997 -0.98651236 217.47
8.8421373 -6.7774577 -0.77904028 217.47
3.649929 -2.7976539 -2.0475123 217.47
13.663294 -10.472853 -0.80281878 217.47
3.8653586 -2.9627798 -2.0342624 217.47
17.676661 -13.54908 -0.51709008 217.47
4.1046276 -3.1461785 -2.019479 217.47
28.52457 -21.863953 0 217.47
4.3585 -3.3407705 -1.9987657 217.47
13.645893 -10.459515 0.39917925 217.47
4.6603222 -3.5721154 -1.9840851 217.47
