# .PCD v0.7 - Point Cloud Data file format
VERSION 0.7
FIELDS x y z intensity
SIZE 4 4 4 4
TYPE F F F F
COUNT 1 1 1 1
WIDTH 1291
HEIGHT 1
VIEWPOINT 0 0 0 1 0 0 0
POINTS 1291
DATA ascii
2.226531 6.3686624 -1.7661756 109.27
2.3769958 6.7990451 -1.7065996 109.27
2.3823264 6.814292 -1.5343883 109.27
2.6844909 7.6018448 -1.3245246 109.45
3.7920508 10.738193 -1.6004907 109.45
4.9725022 14.080953 -1.3931932 109.45
5.4695606 15.488504 -1.1486101 109.45
1.5234143 4.3139496 -2.036937 109.45
8.3235493 23.570326 -1.1657037 109.45
1.622321 4.5940304 -2.0350332 109.45
9.6912222 27.443254 -0.67571265 109.45
1.7357394 4.915204 -2.0354836 109.45
25.025755 70.867027 0 109.45
1.8555131 5.2543755 -2.0281794 109.45
15.652696 44.324738 1.0913715 109.45
1.9628036 5.5581965 -1.9917679 109.45
14.811021 41.941315 2.0742669 109.45
2.0744085 5.8742352 -1.9439306 109.45
14.626905 41.419945 3.0716565 109.45
2.1746566 6.1581144 -1.8726802 109.45
14.996415 42.466305 4.2016878 109.45
2.2993569 6.5112357 -1.8077089 109.45
2.373071 6.7199764 -1.688616 109.45
2.4206591 6.8547349 -1.5451996 109.45
2.7395427 7.7577381 -1.5500933 109.45
2.7719765 7.7760243 -1.3563002 109.62
3.8425155 10.779129 -1.6082844 109.62
5.038331 14.133664 -1.3998815 109.62
1.5362072 4.3094106 -2.036937 109.62
8.7610626 24.576771 -1.2167591 109.62
1.6359446 4.5891967 -2.0350332 109.62
1.7509409 4.9117875 -2.036211 109.62
25.229195 70.773628 0 109.62
1.871726 5.250617 -2.0288634 109.62
15.434352 43.296864 1.0671859 109.62
1.972288 5.5327158 -1.9847254 109.62
14.883073 41.750401 2.0669999 109.62
2.0745196 5.8194985 -1.9278454 109.62
14.743037 41.357571 3.0702615 109.62
2.1277184 5.9687338 -1.8170015 109.62
14.759268 41.403099 4.1008072 109.62
2.2114706 6.2036777 -1.7241359 109.62
2.3727415 6.6560793 -1.6743213 109.62
2.4501832 6.8733206 -1.5510212 109.62
3.0364273 8.517868 -1.7037696 109.62
2.7616293 7.6707201 -1.3394397 109.8
3.8864233 10.794956 -1.6124595 109.8
7.4962568 20.821655 -1.5474776 109.8
1.5491191 4.302844 -2.0361238 109.8
8.7421322 24.282206 -1.2035294 109.8
1.6503539 4.5840344 -2.0350332 109.8
9.6805534 26.888771 -0.66350377 109.8
1.7669942 4.9080153 -2.0369384 109.8
9.7502327 27.082312 0 109.8
1.8875755 5.2429428 -2.0281794 109.8
15.600775 43.332817 1.0692749 109.8
1.9858087 5.5157962 -1.980884 109.8
15.013485 41.701561 2.0669067 109.8
2.0643361 5.7339139 -1.9016324 109.8
14.817475 41.15712 3.0588214 109.8
2.2044189 6.1230092 -1.8660649 109.8
14.86161 41.279709 4.0931902 109.8
2.2066996 6.129344 -1.7053952 109.8
2.4826357 6.8957858 -1.7365724 109.8
2.7043262 7.5115547 -1.5041757 109.8
2.7776363 7.6439438 -1.3361973 109.97
2.732691 7.5202565 -1.1245186 109.97
5.0041213 13.771142 -1.7134551 109.97
4.4757562 12.317101 -1.2226436 109.97
1.5618792 4.2982287 -2.0361238 109.97
8.7056522 23.957605 -1.1887159 109.97
1.6652083 4.5825868 -2.0365748 109.97
9.9289608 27.324102 -0.67496991 109.97
1.7809125 4.901 -2.036211 109.97
25.632364 70.539238 0 109.97
1.904407 5.2408519 -2.0295475 109.97
16.111685 44.338711 1.095271 109.97
2.0047541 5.5170031 -1.9834448 109.97
15.236768 41.930973 2.0805089 109.97
2.0735152 5.7062306 -1.8944833 109.97
14.901367 41.007965 3.0510087 109.97
2.2330821 6.1453524 -1.8748853 109.97
15.027551 41.355217 4.1050806 109.97
2.2295015 6.135499 -1.7089407 109.97
2.4273143 6.679872 -1.6840048 109.97
2.4152889 6.6467786 -1.5032015 109.97
2.5769136 7.0915627 -1.4215978 109.97
2.8838711 7.8677807 -1.3767275 110.13
2.8313839 7.7245851 -1.1562501 110.13
4.4539409 12.151247 -1.5134436 110.13
4.4806657 12.224157 -1.2146549 110.13
5.668098 15.463713 -1.1516794 110.13
1.5751336 4.2972813 -2.0377505 110.13
9.3370037 25.473225 -1.2652059 110.13
1.6773638 4.5761857 -2.035804 110.13
15.270699 41.661541 -1.0301878 110.13
1.7926682 4.8907599 -2.0340285 110.13
10.057479 27.438828 0 110.13
1.918388 5.2337484 -2.0288634 110.13
16.026939 43.724716 1.0812052 110.13
2.0253694 5.5256152 -1.9885668 110.13
15.269233 41.657539 2.0690496 110.13
2.0769577 5.6663589 -1.8831642 110.13
15.077621 41.134785 3.0635648 110.13
2.2621439 6.1715837 -1.8848082 110.13
15.110082 41.223343 4.0961628 110.13
2.1940231 5.9857368 -1.6689271 110.13
2.41448 6.5871873 -1.6623323 110.13
2.5206916 6.8769541 -1.5568427 110.13
2.9349077 8.007019 -1.6067499 110.13
2.8996713 7.8430371 -1.3738092 110.29
2.8247852 7.6404848 -1.144838 110.29
4.4885449 12.140625 -1.5136759 110.29
5.1300602 13.875796 -1.3801883 110.29
1.5845933 4.2860112 -2.0344968 110.29
9.4004812 25.426439 -1.264181 110.29
1.6882163 4.5662909 -2.0334914 110.29
9.8942051 26.761866 -0.66243607 110.29
1.8076109 4.8892298 -2.0354836 110.29
1.9329959 5.2283711 -2.0288634 110.29
16.08935 43.518509 1.0772129 110.29
2.0440772 5.5288239 -1.9917679 110.29
15.364026 41.556648 2.0661614 110.29
2.0888007 5.6497922 -1.8795897 110.29
15.159915 41.00457 3.0570078 110.29
2.2607024 6.1147523 -1.8693726 110.29
15.223068 41.175385 4.0956054 110.29
2.2033496 5.9596243 -1.6633555 110.29
15.744349 42.585346 5.3094807 110.29
2.4105952 6.5201826 -1.6471153 110.29
2.4571226 6.6460299 -1.5061123 110.29
2.8379843 7.6761856 -1.5419466 110.29
2.8980699 7.7636294 -1.3614881 110.47
2.9284267 7.8449526 -1.1768477 110.47
4.52319 12.117159 -1.5125144 110.47
4.5628757 12.223473 -1.2172559 110.47
5.7255726 15.338217 -1.1448432 110.47
1.5986893 4.2827234 -2.0353103 110.47
8.8654804 23.749706 -1.1821942 110.47
1.7019081 4.559236 -2.0327206 110.47
1.8223104 4.8817811 -2.0347559 110.47
26.209883 70.21357 0 110.47
1.9513835 5.2275548 -2.0309155 110.47
16.070057 43.050022 1.0668609 110.47
2.0607736 5.5205998 -1.9911276 110.47
15.529438 41.601761 2.0708196 110.47
2.1058722 5.6414137 -1.8789939 110.47
15.233539 40.809078 3.0459862 110.47
2.2442672 6.0121603 -1.840155 110.47
15.325189 41.0546 4.0883598 110.47
2.2322109 5.9798622 -1.670953 110.47
15.879447 42.539398 5.3099451 110.47
2.4086075 6.4524107 -1.6318984 110.47
2.438993 6.5338101 -1.4824103 110.47
2.9238749 7.7623844 -1.3627851 110.64
2.9628603 7.8658838 -1.1813012 110.64
2.9332151 7.7871809 -0.97311056 110.64
5.2519293 13.942967 -1.3900349 110.64
7.7845263 20.666578 -1.5442688 110.64
1.6126775 4.2813811 -2.036937 110.64
1.7147776 4.5524392 -2.0319498 110.64
1.9662229 5.2199831 -2.0302315 110.64
16.175869 42.944145 1.0654219 110.64
2.0677941 5.4896374 -1.9821644 110.64
15.535198 41.243279 2.0552609 110.64
2.1219282 5.6333542 -1.8783982 110.64
15.382686 40.838383 3.0515666 110.64
2.2255011 5.9083223 -1.8103862 110.64
15.475713 41.08535 4.0959768 110.64
2.4715962 6.5616622 -1.8355665 110.64
16.076315 42.679848 5.3334079 110.64
2.5567088 6.7876215 -1.7185887 110.64
2.4252682 6.4386697 -1.4624509 110.64
2.9335158 7.7144222 -1.355976 110.82
2.9847412 7.8491321 -1.1801879 110.82
2.9830828 7.8447709 -0.98147339 110.82
5.2121868 13.706763 -1.3681124 110.82
7.8167939 20.556236 -1.5378512 110.82
1.6274186 4.2797089 -2.038564 110.82
9.1204576 23.98455 -1.196635 110.82
1.7316947 4.5539293 -2.0350332 110.82
1.8520973 4.8705583 -2.0347559 110.82
16.356327 43.0131 0 110.82
1.9832802 5.2155371 -2.0309155 110.82
2.0675201 5.437067 -1.9655184 110.82
15.630607 41.104633 2.0507889 110.82
2.1382582 5.6230907 -1.8772067 110.82
15.530763 40.842072 3.0554731 110.82
2.2461016 5.9066925 -1.81204 110.82
15.675488 41.222664 4.1145554 110.82
2.373915 6.2428098 -1.748448 110.82
16.297163 42.857513 5.3619809 110.82
2.4362187 6.4066534 -1.6240594 110.82
2.4851179 6.5352464 -1.4861528 110.82
3.191093 8.3917866 -1.6915495 110.82
3.3608718 8.7553701 -1.5407934 111
3.0037072 7.8249249 -1.1779611 111
4.5354176 11.815167 -1.4799922 111
5.4172177 14.112334 -1.4102854 111
7.8677497 20.496189 -1.5352005 111
1.6375818 4.2660465 -2.0344968 111
5.8429317 15.221357 -0.76033467 111
1.7459928 4.5484667 -2.0350332 111
10.705866 27.889734 -0.69358498 111
1.8687247 4.8681946 -2.036211 111
10.795476 28.123177 0 111
1.998982 5.2075262 -2.0302315 111
16.71981 43.556595 1.0832014 111
2.0682945 5.3880911 -1.9501526 111
15.78329 41.116875 2.0538633 111
2.1538606 5.6109986 -1.8754194 111
15.764813 41.068745 3.0761211 111
2.238466 5.8314033 -1.7910916 111
15.976902 41.621254 4.1593294 111
2.2368138 5.8270988 -1.6339784 111
16.329212 42.539051 5.3285294 111
2.2240908 5.7939548 -1.4705069 111
2.5301743 6.5913291 -1.5007066 111
2.5602884 6.6697793 -1.3460557 111
3.3944628 8.7741508 -1.545657 111.15
3.0227532 7.8133402 -1.1774044 111.15
5.3549919 13.841808 -1.3846471 111.15
5.2895594 13.672676 -1.0251411 111.15
1.6513816 4.2685609 -2.0377505 111.15
9.5979614 24.809216 -1.2405167 111.15
1.7565629 4.5404377 -2.0334914 111.15
10.703816 27.667675 -0.68875712 111.15
1.8807911 4.8615479 -2.0354836 111.15
27.042772 69.901299 0 111.15
2.0078616 5.1900053 -2.0254433 111.15
16.860476 43.581669 1.084919 111.15
2.0694039 5.3490825 -1.9379883 111.15
15.885834 41.06237 2.0532112 111.15
2.1678538 5.60356 -1.8748237 111.15
15.914749 41.137115 3.0843523 111.15
2.1774216 5.6282907 -1.7304513 111.15
15.939956 41.202271 4.1216149 111.15
2.3169844 5.9890389 -1.6810831 111.15
16.558067 42.799992 5.3666267 111.15
2.388114 6.1728973 -1.5682641 111.15
2.5453041 6.5792093 -1.4994591 111.15
2.5699406 6.6428905 -1.3419824 111.15
4.0440435 10.351077 -1.8258013 111.34
3.045043 7.7940493 -1.1760128 111.34
4.5150905 11.556763 -1.4509546 111.34
4.5421457 11.626013 -1.1644933 111.34
1.662868 4.2562537 -2.0344968 111.34
9.2170715 23.591888 -1.1811694 111.34
1.7736245 4.5397449 -2.035804 111.34
1.8969022 4.8552842 -2.0354836 111.34
15.781684 40.394577 0 111.34
2.0264292 5.1868196 -2.0268114 111.34
15.725772 40.251465 1.0033098 111.34
2.0754092 5.3121886 -1.9271042 111.34
15.74056 40.289318 2.0171556 111.34
2.1836448 5.5892267 -1.8724407 111.34
15.762117 40.344494 3.028826 111.34
2.1904767 5.6067138 -1.7260411 111.34
15.780115 40.390564 4.0456295 111.34
2.3959744 6.1327028 -1.7236294 111.34
16.605932 42.504314 5.3364277 111.34
2.3349185 5.9764252 -1.5203078 111.34
2.6454165 6.7711706 -1.5451996 111.34
4.0613608 10.310365 -1.8206134 111.5
3.0929275 7.8518538 -1.1860331 111.5
4.554626 11.562592 -1.4532776 111.5
4.5089087 11.446532 -1.1477728 111.5
1.6754169 4.2532935 -2.0353103 111.5
6.0040951 15.242283 -0.76396817 111.5
1.7849423 4.5313401 -2.0342624 111.5
10.892413 27.652002 -0.69001049 111.5
1.9118189 4.853435 -2.0369384 111.5
10.976711 27.866007 0 111.5
2.0353951 5.1671515 -2.0213389 111.5
17.034784 43.245319 1.0791162 111.5
2.0728748 5.2622991 -1.9110985 111.5
16.149551 40.998024 2.054888 111.5
2.1985447 5.5813308 -1.8718449 111.5
16.063374 40.779247 3.0648205 111.5
2.1969652 5.5773211 -1.7188746 111.5
16.595675 42.130573 4.2245393 111.5
2.3258708 5.9045668 -1.6613295 111.5
2.4771316 6.2885647 -1.6014646 111.5
2.654994 6.7400947 -1.539794 111.5
3.4660017 8.7185354 -1.5414419 111.68
4.6430788 11.679408 -1.766385 111.68
3.0894833 7.7714238 -0.9779889 111.68
4.7088971 11.844969 -1.1892025 111.68
6.0327134 15.174956 -1.1419135 111.68
1.6894457 4.2497072 -2.0361238 111.68
9.411521 23.674158 -1.1880637 111.68
1.7991691 4.5257101 -2.0342624 111.68
10.947469 27.53775 -0.68801439 111.68
1.9249922 4.8422112 -2.0347559 111.68
27.654961 69.564522 0 111.68
2.0502295 5.157239 -2.0199709 111.68
17.239992 43.366245 1.0834799 111.68
2.077497 5.2258286 -1.9002144 111.68
16.259819 40.900673 2.0525589 111.68
2.2259424 5.5992346 -1.8801854 111.68
16.201723 40.754539 3.0667737 111.68
2.3302424 5.8615956 -1.8087323 111.68
16.726479 42.074528 4.2241678 111.68
2.3544157 5.9224019 -1.6684206 111.68
2.5004702 6.289794 -1.6037703 111.68
2.6190622 6.5881057 -1.5069439 111.68
3.4676161 8.6477642 -1.5307419 111.85
4.6858201 11.685801 -1.7694468 111.85
3.1162245 7.7714419 -0.97915041 111.85
5.3139553 13.252285 -1.3320704 111.85
4.8428636 12.077445 -0.90990347 111.85
1.7040874 4.249763 -2.038564 111.85
9.8438301 24.549177 -1.233436 111.85
1.8153366 4.5272036 -2.0373456 111.85
11.231537 28.009932 -0.70064104 111.85
1.9407376 4.8399367 -2.036211 111.85
11.111001 27.70933 0 111.85
2.0564294 5.1284561 -2.0110784 111.85
17.445978 43.507908 1.0883077 111.85
2.0845311 5.1985383 -1.8925316 111.85
16.394485 40.885628 2.0542359 111.85
2.2496514 5.6103258 -1.8861428 111.85
16.361929 40.804432 3.0741677 111.85
2.3240116 5.7957702 -1.7905402 111.85
16.559975 41.298336 4.151155 111.85
2.6089346 6.5063295 -1.6609489 111.85
2.5585082 6.3805723 -1.4612033 111.85
3.4036038 8.4881268 -1.7230254 111.85
4.724185 11.681026 -1.7708385 112.02
4.6988492 11.618382 -1.4655895 112.02
5.4749513 13.537373 -1.3623531 112.02
5.9842706 14.796717 -1.1161035 112.02
1.7160041 4.2429943 -2.0377505 112.02
9.9241152 24.538383 -1.2343676 112.02
1.8259933 4.5149541 -2.0342624 112.02
11.019229 27.246162 -0.68235093 112.02
1.9550894 4.834157 -2.036211 112.02
28.05378 69.365814 0 112.02
2.0582485 5.0892286 -1.9980817 112.02
16.976015 41.974922 1.0512168 112.02
2.0949733 5.1800346 -1.88805 112.02
16.559168 40.944225 2.0596397 112.02
2.2247701 5.5009699 -1.8515894 112.02
2.2309134 5.51616 -1.7061952 112.02
16.974365 41.97084 4.2237964 112.02
2.3184276 5.7325473 -1.6187832 112.02
2.6304169 6.5039725 -1.6623323 112.02
2.6852491 6.6395507 -1.5223294 112.02
3.4641447 8.5654497 -1.7408 112.02
4.7294288 11.589111 -1.759148 112.2
4.7248182 11.577813 -1.4623373 112.2
5.528739 13.547762 -1.3651398 112.2
6.068418 14.870205 -1.1230792 112.2
1.7279447 4.234199 -2.0361238 112.2
9.9988918 24.501535 -1.2340882 112.2
1.8394711 4.5074863 -2.0334914 112.2
11.369188 27.859344 -0.6985985 112.2
1.9702667 4.827991 -2.036211 112.2
28.257957 69.244011 0 112.2
2.0600245 5.047936 -1.9844009 112.2
17.548998 43.002506 1.0783271 112.2
2.1126685 5.1769361 -1.8893305 112.2
17.253862 42.279301 2.1295147 112.2
2.2355485 5.4780445 -1.8462276 112.2
16.873219 41.346558 3.1227183 112.2
2.2932692 5.6194849 -1.7403742 112.2
17.092592 41.884117 4.2204523 112.2
2.3700535 5.8076386 -1.6420825 112.2
2.6030407 6.3785563 -1.6323596 112.2
2.7105296 6.6419497 -1.5248244 112.2
2.7625306 6.7693744 -1.3775315 112.2
4.2179065 10.25372 -1.8215861 112.36
4.7482114 11.54289 -1.7541378 112.36
4.908988 11.933739 -1.2038795 112.36
1.7404572 4.2310472 -2.036937 112.36
10.068034 24.475367 -1.2341813 112.36
1.8555616 4.5108657 -2.0373456 112.36
11.20886 27.248713 -0.68406856 112.36
1.9837413 4.8224702 -2.036211 112.36
28.498384 69.279503 0 112.36
2.0576687 5.0021877 -1.968668 112.36
2.1263962 5.1692638 -1.8886902 112.36
17.473705 42.478535 2.1419992 112.36
2.263911 5.503562 -1.8569511 112.36
17.309669 42.079762 3.1817322 112.36
2.3703885 5.7624087 -1.7866813 112.36
17.245852 41.924622 4.2293696 112.36
2.3847902 5.7974191 -1.6410694 112.36
2.4994252 6.0760965 -1.5567361 112.36
2.7491608 6.6832032 -1.5360516 112.36
3.5889335 8.7246885 -1.7774601 112.36
4.2667418 10.28052 -1.8287194 112.54
4.7700262 11.49316 -1.7488492 112.54
4.9334779 11.886991 -1.2007211 112.54
1.7530404 4.2238708 -2.0361238 112.54
9.7114191 23.399221 -1.1814488 112.54
1.8683089 4.501605 -2.035804 112.54
11.071372 26.675966 -0.67055982 112.54
1.9974535 4.8127728 -2.0347559 112.54
11.630948 28.02424 0 112.54
2.0596855 4.962718 -1.9556712 112.54
2.1404464 5.1573081 -1.8867695 112.54
17.57567 42.347775 2.1381793 112.54
2.2724075 5.4752622 -1.8498021 112.54
17.535851 42.251831 3.1988924 112.54
2.280884 5.4956861 -1.7061952 112.54
17.403429 41.93277 4.2356863 112.54
2.4185665 5.8274255 -1.651706 112.54
2.6415918 6.3647947 -1.6328207 112.54
2.7618942 6.6546578 -1.5314776 112.54
2.7303255 6.5785947 -1.3419824 112.54
3.6633043 8.757411 -1.5595994 112.7
4.7738233 11.412191 -1.7385504 112.7
5.4857049 13.113999 -1.6623487 112.7
4.7906728 11.452472 -1.1581767 112.7
6.3242211 15.118538 -1.1459594 112.7
1.7655339 4.2206445 -2.036937 112.7
9.778266 23.375696 -1.1816353 112.7
1.8787359 4.4912624 -2.0334914 112.7
11.320205 27.061819 -0.68105114 112.7
2.0123234 4.8106136 -2.036211 112.7
28.899733 69.087036 0 112.7
2.0597558 4.9240046 -1.9426744 112.7
2.15484 5.1513104 -1.8867695 112.7
17.820297 42.600792 2.1534586 112.7
2.2913723 5.4777017 -1.8527809 112.7
17.592945 42.057293 3.1878707 112.7
2.2902865 5.4751062 -1.7017851 112.7
20.686577 49.452854 5.0011158 112.7
2.61129 6.2424898 -1.6033092 112.7
2.7585733 6.5945816 -1.5194186 112.7
3.601203 8.6089525 -1.7582043 112.7
4.8208852 11.418193 -1.7418905 112.89
5.5368891 13.114037 -1.6646718 112.89
6.9896541 16.55489 -1.6765137 112.89
6.2943902 14.908167 -1.1315895 112.89
1.7788097 4.2130837 -2.0361238 112.89
10.234167 24.23947 -1.2270075 112.89
1.8914657 4.4799075 -2.031179 112.89
11.418437 27.044394 -0.68156177 112.89
2.0268154 4.8004813 -2.0347559 112.89
11.811255 27.974777 0 112.89
2.0636458 4.8877134 -1.9310458 112.89
21.516312 50.961056 1.2842997 112.89
2.1689625 5.1371546 -1.8842086 112.89
17.973125 42.569073 2.1548562 112.89
2.2976425 5.4419312 -1.843249 112.89
17.73542 42.006073 3.1884289 112.89
2.273284 5.3842382 -1.6758751 112.89
20.898478 49.497723 5.0126348 112.89
2.5609832 6.0656495 -1.7236294 112.89
2.7530913 6.5206547 -1.677088 112.89
2.7454238 6.5024943 -1.5002908 112.89
3.6159708 8.5643721 -1.7515389 112.89
4.8535275 11.406508 -1.7421689 113.05
5.6014881 13.164327 -1.6730347 113.05
5.7758894 13.574196 -1.3762869 113.05
6.4883237 15.248521 -1.1587945 113.05
1.7898525 4.2064185 -2.0353103 113.05
10.360483 24.348671 -1.233995 113.05
1.9061362 4.4797025 -2.0334914 113.05
11.390577 26.769545 -0.67543411 113.05
2.0424013 4.7999458 -2.0369384 113.05
12.071002 28.368641 0 113.05
2.0633059 4.8490744 -1.918049 113.05
2.1832995 5.1310778 -1.8842086 113.05
20.965801 49.272736 2.4971511 113.05
2.2859197 5.3722496 -1.8218019 113.05
17.872965 42.004112 3.1920562 113.05
2.3018599 5.4097118 -1.685798 113.05
21.020247 49.400692 5.0087333 113.05
2.5763965 6.0549135 -1.7226163 113.05
21.471075 50.460205 6.4129124 113.05
2.6288011 6.178072 -1.5908589 113.05
2.807997 6.5992088 -1.5244085 113.05
3.6452599 8.5669003 -1.754131 113.05
4.3941274 10.23746 -1.8303406 113.23
4.8830891 11.376645 -1.7399421 113.23
5.6631885 13.194125 -1.6790745 113.23
7.0901256 16.51861 -1.677071 113.23
6.4756026 15.086892 -1.1480521 113.23
1.8016173 4.1974168 -2.0336833 113.23
9.7852583 22.797743 -1.1569459 113.23
1.9231118 4.4804754 -2.0365748 113.23
11.514052 26.825497 -0.67775518 113.23
2.0552664 4.7883697 -2.0347559 113.23
2.0651865 4.811482 -1.9057362 113.23
21.402731 49.864189 1.2598355 113.23
2.1994085 5.1241932 -1.8842086 113.23
2.1265752 4.9545054 -1.6823965 113.23
2.3340094 5.4377871 -1.6968236 113.23
2.7747414 6.4646068 -1.8416445 113.23
21.581701 50.281155 6.3987422 113.23
2.5706701 5.9891601 -1.5442859 113.23
2.846462 6.6317015 -1.5339725 113.23
3.9279737 9.151413 -1.8763313 113.23
4.422132 10.218944 -1.8293679 113.4
4.9231153 11.376648 -1.7421689 113.4
5.7977705 13.397858 -1.707183 113.4
5.8254852 13.461902 -1.368484 113.4
7.8047552 18.035725 -1.3742025 113.4
1.8191426 4.2037907 -2.0393775 113.4
10.400327 24.033735 -1.2212311 113.4
1.9327325 4.4662814 -2.0327206 113.4
11.102057 25.655342 -0.64902025 113.4
2.0583663 4.7566037 -2.0238438 113.4
21.991667 50.819744 0 113.4
2.0727358 4.7898097 -1.8995799 113.4
21.479118 49.635315 1.2556576 113.4
2.2018101 5.0880833 -1.8733246 113.4
21.266397 49.143745 2.4971511 113.4
2.3202105 5.36169 -1.8229934 113.4
21.561726 49.826206 3.7964263 113.4
2.4272494 5.6090426 -1.7525023 113.4
21.369865 49.382847 5.0200658 113.4
2.5995045 6.0071001 -1.7134993 113.4
21.730003 50.215076 6.3985095 113.4
2.5451469 5.8814874 -1.5184633 113.4
2.8202868 6.5172982 -1.5094389 113.4
3.7435768 8.6508961 -1.7759789 113.4
4.452229 10.210174 -1.8300164 113.56
4.9453659 11.34107 -1.7388288 113.56
5.8494539 13.414391 -1.7113644 113.56
7.1644526 16.43004 -1.6722406 113.56
7.9085202 18.136391 -1.3835499 113.56
1.8294141 4.1953444 -2.0377505 113.56
1.9496231 4.4710164 -2.0373456 113.56
11.196035 25.675556 -0.65032005 113.56
2.0589819 4.721806 -2.0114768 113.56
30.089308 69.002975 0 113.56
2.0748353 4.758162 -1.8893193 113.56
2.0918045 4.7970777 -1.7683263 113.56
21.41473 49.109806 2.4984555 113.56
2.3435683 5.3744407 -1.8295467 113.56
2.5404966 5.8260503 -1.8225142 113.56
21.586485 49.503689 5.0384583 113.56
2.5110927 5.7586188 -1.6446149 113.56
21.882849 50.183331 6.4022264 113.56
2.5623391 5.8761411 -1.5189244 113.56
2.9323094 6.7245836 -1.5593377 113.56
4.493216 10.211611 -1.8329345 113.75
4.9630055 11.279288 -1.7318701 113.75
5.0026593 11.369409 -1.4525807 113.75
5.977385 13.584641 -1.3846471 113.75
7.9236217 18.007799 -1.3757372 113.75
1.8433163 4.1892552 -2.0377505 113.75
10.454413 23.759462 -1.2105169 113.75
1.962209 4.4594593 -2.0350332 113.75
11.153883 25.349127 -0.6429854 113.75
2.0603726 4.6825533 -1.9976547 113.75
30.361462 69.001671 0 113.75
2.0898457 4.7495356 -1.8886353 113.75
21.810104 49.567234 1.2572823 113.75
2.094728 4.7606316 -1.7574422 113.75
21.507463 48.879429 2.49035 113.75
2.3583021 5.3596492 -1.8271637 113.75
22.248173 50.56282 3.8628345 113.75
2.0642569 4.691381 -1.4696984 113.75
22.073738 50.166386 5.1133294 113.75
2.5730329 5.847662 -1.6724726 113.75
22.18675 50.423225 6.4421825 113.75
2.9070845 6.6068521 -1.7102886 113.75
2.9333198 6.6664762 -1.5481105 113.75
4.0100751 9.1135883 -1.8759611 113.75
4.5231328 10.20703 -1.8342315 113.9
4.9804816 11.239096 -1.7276949 113.9
4.9986057 11.279995 -1.442824 113.9
6.0161562 13.576227 -1.3853903 113.9
1.8535372 4.1827445 -2.036937 113.9
10.452638 23.587717 -1.2031567 113.9
1.9723817 4.4509325 -2.0334914 113.9
11.411384 25.751251 -0.65394092 113.9
2.0605481 4.6498909 -1.986015 113.9
30.556589 68.954865 0 113.9
2.099227 4.737175 -1.8858991 113.9
2.2745306 5.1327701 -1.8970133 113.9
21.668543 48.897842 2.49417 113.9
2.4117742 5.4424777 -1.8575469 113.9
2.1030142 4.7457213 -1.4884417 113.9
22.138842 49.959133 5.0980949 113.9
2.6706395 6.0266404 -1.7256554 113.9
22.007225 49.662125 6.3522816 113.9
2.915889 6.5800776 -1.5298142 113.9
4.0275502 9.0886841 -1.8729986 113.9
4.5583978 10.199977 -1.8355285 114.08
4.9802098 11.143833 -1.7154477 114.08
5.1272259 11.472799 -1.4695387 114.08
6.0246525 13.480902 -1.3775874 114.08
1.8651775 4.1735644 -2.0353103 114.08
1.984849 4.4413443 -2.0319498 114.08
11.324172 25.33923 -0.64437807 114.08
2.0607035 4.6110778 -1.9721929 114.08
23.644283 52.906998 0 114.08
2.1148658 4.7322726 -1.8865831 114.08
22.423998 50.176456 1.2759902 114.08
2.2736366 5.0875421 -1.8829281 114.08
2.4140596 5.4017558 -1.8462276 114.08
2.2332215 4.9971085 -1.5694791 114.08
22.428932 50.187496 5.1285639 114.08
2.3674755 5.2975178 -1.5190022 114.08
22.455725 50.247452 6.4361424 114.08
3.0107784 6.7369876 -1.5684857 114.08
4.0528755 9.0688086 -1.8715174 114.08
4.5823107 10.167613 -1.8322861 114.26
5.0583239 11.223831 -1.7301999 114.26
5.3672915 11.909394 -1.527614 114.26
7.3490977 16.306791 -1.6687107 114.26
8.0926132 17.956566 -1.3772718 114.26
1.8835349 4.1793447 -2.0410044 114.26
10.659739 23.652716 -1.2098647 114.26
2.0010669 4.440134 -2.0342624 114.26
11.376611 25.243374 -0.64284617 114.26
2.0614011 4.5740085 -1.9590983 114.26
12.474256 27.678919 0 114.26
2.1281776 4.7221785 -1.885215 114.26
22.630814 50.215137 1.2787755 114.26
2.2475686 4.9870925 -1.8483555 114.26
2.3321767 5.1748285 -1.7711632 114.26
21.665283 48.072739 3.6871877 114.26
2.5380211 5.6315727 -1.7712456 114.26
22.269846 49.414192 5.0566654 114.26
2.4556534 5.4488087 -1.5645875 114.26
22.571844 50.084293 6.4242949 114.26
2.9657774 6.5807142 -1.7102886 114.26
4.0821538 9.0578232 -1.8718877 114.26
4.6165395 10.162957 -1.8339072 114.43
5.1145387 11.259264 -1.7379937 114.43
5.1175213 11.26583 -1.4470054 114.43
6.0961828 13.420279 -1.3751723 114.43
8.1310034 17.899778 -1.3747606 114.43
1.8951714 4.1720743 -2.0401909 114.43
10.665421 23.479105 -1.2025977 114.43
2.0119424 4.4291368 -2.0319498 114.43
11.458075 25.224072 -0.64321756 114.43
2.0610943 4.5373406 -1.9460037 114.43
11.420631 25.141642 0 114.43
2.1406248 4.7124209 -1.883847 114.43
23.241964 51.165398 1.3047252 114.43
2.257654 4.9700513 -1.8445141 114.43
2.3269906 5.1226907 -1.7556738 114.43
21.98358 48.395161 3.7169039 114.43
2.5173485 5.541749 -1.7453357 114.43
22.444365 49.409542 5.0629821 114.43
2.4446027 5.3816051 -1.5473664 114.43
2.9651678 6.5275888 -1.6987606 114.43
3.0017126 6.6080394 -1.5427047 114.43
4.1106362 9.0492496 -1.8726283 114.43
4.6433868 10.142036 -1.8326102 114.6
5.1652365 11.281856 -1.7438389 114.6
5.4825225 11.974868 -1.5401583 114.6
7.4589977 16.291864 -1.6716833 114.6
7.6043649 16.609373 -1.2773806 114.6
1.9083024 4.1680937 -2.0410044 114.6
10.212757 22.306597 -1.144089 114.6
2.0250752 4.4231477 -2.0319498 114.6
11.474602 25.062704 -0.63996804 114.6
2.0644658 4.5091844 -1.9365466 114.6
11.479359 25.073095 0 114.6
2.1530325 4.702631 -1.8824788 114.6
2.2282202 4.8668551 -1.808661 114.6
22.243519 48.584057 2.4918406 114.6
2.2730348 4.9647388 -1.7038436 114.6
22.054817 48.171898 3.7047663 114.6
2.4497476 5.3507128 -1.6874518 114.6
22.695314 49.570866 5.086391 114.6
2.4162614 5.2775726 -1.5195087 114.6
2.5721657 5.6180973 -1.4640514 114.6
3.705375 8.0932407 -1.8919964 114.6
4.1374679 9.037014 -1.8726283 114.6
4.6718049 10.124631 -1.8319619 114.77
5.157198 11.176564 -1.7299217 114.77
5.5080409 11.936904 -1.5373707 114.77
7.5164814 16.289551 -1.6737269 114.77
8.1317539 17.622955 -1.3571819 114.77
1.9229574 4.1673903 -2.0434449 114.77
10.377668 22.490252 -1.1550827 114.77
2.0389631 4.4187951 -2.0327206 114.77
11.781802 25.533258 -0.65287322 114.77
2.0630052 4.4708986 -1.9227244 114.77
31.659557 68.611885 0 114.77
2.1638265 4.6893964 -1.8797427 114.77
2.2886946 4.9600077 -1.8457946 114.77
22.418543 48.584965 2.4952879 114.77
2.1821668 4.7291431 -1.6252046 114.77
22.186783 48.082699 3.7029526 114.77
2.4503083 5.3102536 -1.6769776 114.77
22.7355 49.27187 5.0626106 114.77
2.433531 5.2738938 -1.5205218 114.77
2.8048987 6.0787139 -1.5862477 114.77
3.7310109 8.0857639 -1.892828 114.77
4.1716743 9.0407591 -1.8759611 114.77
4.7177415 10.140324 -1.8374739 114.95
5.2273731 11.235726 -1.7416122 114.95
5.5287557 11.883519 -1.5327246 114.95
7.5608993 16.251413 -1.6722406 114.95
8.2560892 17.745655 -1.3686221 114.95
1.9383523 4.1662984 -2.0458853 114.95
10.534231 22.6423 -1.1645857 114.95
2.0536137 4.414041 -2.0334914 114.95
11.831595 25.430855 -0.65120202 114.95
2.0652528 4.4390588 -1.9118123 114.95
31.847111 68.45224 0 114.95
2.1571429 4.6365676 -1.8612736 114.95
2.2986708 4.9407673 -1.8413129 114.95
22.61573 48.610298 2.5002258 114.95
2.138222 4.5958986 -1.5817149 114.95
22.309114 47.951256 3.6982093 114.95
2.4726555 5.3147311 -1.6808366 114.95
22.896059 49.212837 5.063911 114.95
2.5161955 5.4083161 -1.5615485 114.95
2.8289073 6.0804591 -1.5890144 114.95
3.7605207 8.0828714 -1.8949071 114.95
4.1295853 8.8761387 -1.8444852 114.95
4.7511587 10.133429 -1.8387709 115.12
5.2976809 11.299068 -1.7538594 115.12
5.457737 11.640441 -1.5034547 115.12
7.616693 16.245134 -1.6739126 115.12
9.2056389 19.63409 -1.5163662 115.12
1.9483786 4.1555662 -2.0434449 115.12
10.660734 22.737564 -1.1711073 115.12
2.051816 4.3761806 -2.0188453 115.12
12.064876 25.732365 -0.65983647 115.12
2.0657606 4.4059224 -1.9001726 115.12
32.086578 68.435318 0 115.12
2.1740818 4.6369534 -1.8640097 115.12
2.3084941 4.9236321 -1.8374715 115.12
22.932875 48.911995 2.5192318 115.12
2.1810265 4.6517653 -1.6031619 115.12
23.749683 50.65411 3.9120827 115.12
2.5741086 5.4901438 -1.7387204 115.12
23.069874 49.204185 5.0700417 115.12
2.843524 6.0647621 -1.753513 115.12
3.0402565 6.4843593 -1.6969161 115.12
3.7936218 8.0911617 -1.8994812 115.12
4.2276573 9.0168867 -1.8763313 115.12
4.7811236 10.123691 -1.8394194 115.28
5.315681 11.255577 -1.7494059 115.28
5.6598825 11.9844 -1.549915 115.28
7.6552253 16.209396 -1.6724263 115.28
9.190567 19.460373 -1.5049262 115.28
1.958415 4.1468048 -2.0418179 115.28
10.721628 22.702286 -1.1708279 115.28
2.0537832 4.3487406 -2.0088243 115.28
12.10424 25.629869 -0.65807247 115.28
2.0756695 4.395083 -1.8979902 115.28
32.295498 68.383423 0 115.28
2.1372623 4.5255013 -1.8215992 115.28
2.2160215 4.6922684 -1.6192471 115.28
23.805843 50.407185 3.8981314 115.28
2.1493747 4.5511484 -1.4432372 115.28
23.173172 49.067547 5.0626106 115.28
2.5397623 5.3777661 -1.4091783 115.28
3.0651586 6.4902558 -1.525656 115.28
4.262053 9.0245953 -1.8804047 115.28
4.8112741 10.100653 -1.8381224 115.47
5.6210017 11.800572 -1.5285432 115.47
7.0306997 14.760053 -1.5252856 115.47
7.9431953 16.67572 -1.2916108 115.47
1.9721556 4.1402879 -2.0418179 115.47
10.631038 22.318501 -1.1528467 115.47
2.0610502 4.326911 -2.0018868 115.47
18.927773 39.736431 -1.0218785 115.47
2.087028 4.3814478 -1.8950802 115.47
32.578854 68.395126 0 115.47
2.1183128 4.4471264 -1.7928696 115.47
2.1283045 4.4681025 -1.6722912 115.47
23.619564 49.586246 2.5613432 115.47
2.2947891 4.8176155 -1.6651198 115.47
23.261602 48.834751 3.782475 115.47
2.1644549 4.5439959 -1.4432372 115.47
2.5559077 5.3658004 -1.4082559 115.47
3.8530722 8.0890312 -1.904471 115.47
4.2767425 8.9784727 -1.8737392 115.47
4.8514132 10.112089 -1.8426617 115.63
5.6255774 11.725726 -1.5208772 115.63
7.7308421 16.113855 -1.6674103 115.63
1.9837097 4.1347642 -2.0418179 115.63
10.704556 22.312143 -1.1540579 115.63
2.0603528 4.2945161 -1.9895532 115.63
12.433554 25.915997 -0.66735679 115.63
2.0976436 4.3722434 -1.8936253 115.63
32.769722 68.303879 0 115.63
2.2120178 4.61064 -1.8612736 115.63
2.1547065 4.4911833 -1.6831751 115.63
2.4444976 5.095212 -1.7634184 115.63
23.426363 48.828964 3.7870789 115.63
2.1787989 4.5414004 -1.4443398 115.63
2.706578 5.6414819 -1.6380304 115.63
3.4825599 7.2589073 -1.9076474 115.63
3.8824158 8.09235 -1.9077977 115.63
4.3009486 8.9647226 -1.8733689 115.63
4.878861 10.087914 -1.8410406 115.81
5.8941755 12.187259 -1.5831341 115.81
6.9690375 14.409728 -1.4933307 115.81
7.9942346 16.529505 -1.2839377 115.81
1.9943031 4.1235776 -2.0393775 115.81
10.770249 22.269411 -1.153592 115.81
2.0609782 4.2614398 -1.9772197 115.81
12.458324 25.759808 -0.66433936 115.81
2.1097467 4.3622775 -1.8921703 115.81
33.027679 68.290619 0 115.81
2.255949 4.6645765 -1.8858991 115.81
2.2405763 4.632791 -1.7388755 115.81
2.3815241 4.9242258 -1.7068223 115.81
23.543165 48.679691 3.7812195 115.81
2.6964891 5.5754719 -1.6213158 115.81
3.5121257 7.2619462 -1.9113363 115.81
3.9095228 8.0836353 -1.9086293 115.81
4.3290906 8.9511671 -1.8733689 115.81
4.8586164 9.9748926 -1.8228831 115.97
7.1836529 14.748265 -1.5304875 115.97
9.2233086 18.935741 -1.4728382 115.97
2.0050104 4.1163497 -2.038564 115.97
10.765906 22.102745 -1.1465113 115.97
2.0607483 4.2307811 -1.965657 115.97
13.678952 28.083319 -0.72524446 115.97
2.1202886 4.3530192 -1.8907154 115.97
33.242779 68.248466 0 115.97
2.2204101 4.5585718 -1.8455406 115.97
2.3215413 4.7661977 -1.7913747 115.97
2.4512808 5.0325565 -1.7467375 115.97
2.2141285 4.5456753 -1.4498525 115.97
2.7400074 5.6253214 -1.6380304 115.97
3.5349479 7.257359 -1.9127196 115.97
3.9337947 8.0762043 -1.909461 115.97
4.3609552 8.9531784 -1.8763313 115.97
4.9108043 10.002096 -1.8306649 116.15
5.1778483 10.545999 -1.6511496 116.15
8.223197 16.748623 -1.3047251 116.15
2.0187378 4.1116705 -2.0393775 116.15
10.7446 21.8841 -1.1369151 116.15
2.0618293 4.1994376 -1.9540944 116.15
12.195036 24.838278 -0.6424284 116.15
2.1331325 4.3446641 -1.8899879 116.15
33.53635 68.305267 0 116.15
2.2388616 4.5600085 -1.8489609 116.15
2.3106165 4.7061553 -1.7715274 116.15
2.3871429 4.862021 -1.6901413 116.15
2.4114149 4.9114566 -1.5689279 116.15
2.4199929 4.9289284 -1.4374552 116.15
3.5611608 7.2532058 -1.9145641 116.15
3.9582851 8.0620499 -1.9090451 116.15
4.388195 8.9376698 -1.8759611 116.15
4.9570847 10.029899 -1.8381224 116.3
5.7130189 11.559415 -1.5078684 116.3
7.2261262 14.620955 -1.5215698 116.3
9.624815 19.474335 -1.519017 116.3
2.0286856 4.1047335 -2.038564 116.3
10.767334 21.786045 -1.1332816 116.3
2.0630043 4.1741719 -1.9448442 116.3
13.763399 27.848122 -0.72120583 116.3
2.1387212 4.327374 -1.8848956 116.3
13.871673 28.067198 0 116.3
2.2241457 4.5002165 -1.8270715 116.3
2.3011019 4.6559258 -1.7548814 116.3
2.2509823 4.5545163 -1.5852894 116.3
2.2717898 4.5966177 -1.4702497 116.3
3.9845786 8.0621824 -1.91154 116.3
4.4107075 8.9243889 -1.8755907 116.3
4.9859161 10.004573 -1.8365012 116.49
5.2288537 10.492043 -1.6475312 116.49
5.4465203 10.928805 -1.4279567 116.49
7.0534029 14.153123 -1.4753097 116.49
9.6893415 19.44231 -1.519017 116.49
2.0422862 4.0979834 -2.038564 116.49
10.808331 21.687637 -1.1300207 116.49
2.0636644 4.1408801 -1.9325106 116.49
2.1547215 4.3235927 -1.8863505 116.49
2.2055252 4.4255333 -1.79971 116.49
2.3190644 4.653357 -1.7568021 116.49
2.2524478 4.5196867 -1.5757574 116.49
2.178972 4.3722529 -1.400789 116.49
2.3318307 4.6789737 -1.3685708 116.49
2.8003259 5.619041 -1.4875684 116.49
4.0043111 8.0349178 -1.9082135 116.49
4.4429078 8.9149904 -1.8767016 116.49
5.0129495 9.9888468 -1.836177 116.65
5.7665949 11.490567 -1.5034547 116.65
7.2027617 14.352286 -1.4981611 116.65
9.7292786 19.386646 -1.5167848 116.65
2.0488048 4.0824661 -2.0336833 116.65
10.879605 21.678797 -1.1311388 116.65
2.0652866 4.1153083 -1.9232606 116.65
2.1659513 4.3158937 -1.8856231 116.65
14.392726 28.679071 0 116.65
2.2010155 4.3857627 -1.7860292 116.65
2.2590659 4.5014343 -1.5715872 116.65
2.1756513 4.3352218 -1.390866 116.65
2.3448877 4.6724439 -1.3685708 116.65
4.022346 8.0149612 -1.9061344 116.65
4.4686675 8.9043055 -1.877072 116.65
5.0496106 9.9792128 -1.8374739 116.84
6.4127584 12.673112 -1.660955 116.84
7.1622047 14.154193 -1.4799544 116.84
9.7754974 19.318672 -1.5139945 116.84
2.0582068 4.0674987 -2.0296159 116.84
10.963161 21.665773 -1.13235 116.84
2.0655904 4.0820899 -1.9109269 116.84
12.55014 24.802015 -0.6453529 116.84
2.1777279 4.3037004 -1.8834406 116.84
12.917432 25.527868 0 116.84
2.1315413 4.2124248 -1.7183092 116.84
12.902216 25.497799 0.66345733 116.84
2.2918401 4.5292125 -1.7151868 116.84
2.2851868 4.5160642 -1.5793319 116.84
2.856565 5.6452413 -1.4990963 116.84
4.0462527 7.9963422 -1.904887 116.84
4.5132561 8.9192505 -1.8833671 116.84
5.0908489 9.9870434 -1.8416891 117.01
5.5262365 10.841172 -1.7101591 117.01
5.920773 11.61516 -1.5245941 117.01
7.2095957 14.143525 -1.481069 117.01
9.8164644 19.257587 -1.5114833 117.01
2.0611389 4.043468 -2.0206676 117.01
11.031933 21.64205 -1.1328157 117.01
2.0676355 4.0562129 -1.9016768 117.01
12.126063 23.788475 -0.61991388 117.01
2.1913338 4.2988796 -1.884168 117.01
14.637126 28.714586 0 117.01
2.1849992 4.2864528 -1.7511431 117.01
2.2940819 4.5004473 -1.7068638 117.01
2.4156294 4.7388945 -1.6597581 117.01
2.6580133 5.214395 -1.5321712 117.01
3.6625545 7.1850677 -1.9108752 117.01
4.0761795 7.9965019 -1.9077977 117.01
4.5379148 8.902318 -1.8826265 117.01
5.1213598 9.9736509 -1.8420132 117.18
5.5330477 10.775396 -1.7023654 117.18
6.198391 12.071127 -1.5868509 117.18
7.1341867 13.893554 -1.4571029 117.18
9.849865 19.182232 -1.5078559 117.18
2.0581043 4.0080786 -2.0060251 117.18
11.114349 21.644766 -1.1346791 117.18
2.0762894 4.0434937 -1.8985934 117.18
12.322632 23.997849 -0.62632006 117.18
2.1930163 4.2708144 -1.8747109 117.18
12.848517 25.02199 0 117.18
2.2801218 4.4404488 -1.816811 117.18
2.3507001 4.5778975 -1.7388755 117.18
2.2604911 4.4022193 -1.5441827 117.18
2.3921747 4.6586676 -1.5016723 117.18
2.409219 4.6918612 -1.3807269 117.18
2.4028633 4.6794834 -1.2464033 117.18
4.0945258 7.9739308 -1.9053028 117.18
4.5678997 8.8958082 -1.8841077 117.18
5.1283445 9.9189892 -1.8345557 117.34
5.5694838 10.772218 -1.7043138 117.34
6.2302508 12.050241 -1.5863862 117.34
7.259841 14.041623 -1.4747523 117.34
8.2201462 15.898997 -1.2515707 117.34
2.0550237 3.9747248 -1.9921961 117.34
11.180255 21.624292 -1.1352381 117.34
2.0841827 4.0311222 -1.8955101 117.34
10.544749 20.395128 -0.53305912 117.34
2.2100677 4.2746029 -1.8790758 117.34
12.484791 24.147461 0 117.34
2.2717974 4.3939977 -1.8003941 117.34
2.2703629 4.391223 -1.6703705 117.34
2.2631304 4.3772345 -1.5376295 117.34
2.4122384 4.6656313 -1.5060825 117.34
2.4107602 4.6627722 -1.3741424 117.34
3.7271152 7.2088008 -1.9228642 117.34
4.1275587 7.9833193 -1.9102926 117.34
4.5981398 8.8934927 -1.8863295 117.34
4.7019596 9.028532 -1.6724353 117.51
5.6069098 10.766186 -1.7059839 117.51
6.2678123 12.035227 -1.5868509 117.51
8.1476994 15.644917 -1.6456735 117.51
8.7022581 16.709761 -1.3174207 117.51
2.0566807 3.9491637 -1.9824344 117.51
2.0961342 4.0249209 -1.8955101 117.51
10.987569 21.097933 -0.55227762 117.51
2.2192988 4.2614174 -1.8761659 117.51
14.889918 28.591084 0 117.51
2.2353432 4.2922254 -1.7614037 117.51
2.229995 4.2819557 -1.6313162 117.51
2.3060915 4.4280734 -1.5578849 117.51
2.3683498 4.5476193 -1.4702497 117.51
2.8044028 5.384913 -1.5894061 117.51
3.7394984 7.1804495 -1.9182531 117.51
4.147613 7.964097 -1.9086293 117.51
4.6254148 8.8815536 -1.8866998 117.51
4.719295 8.9927454 -1.6685443 117.69
5.6563506 10.778331 -1.7107158 117.69
8.1570187 15.543421 -1.6376848 117.69
8.6898127 16.558676 -1.3076549 117.69
2.0571909 3.9200332 -1.9710457 117.69
10.804324 20.587936 -1.0842758 117.69
2.1070533 4.0150476 -1.8939683 117.69
10.763909 20.510923 -0.53779411 117.69
2.2396014 4.2676215 -1.8819857 117.69
15.115355 28.802723 0 117.69
2.2828765 4.3500834 -1.7880813 117.69
2.3041885 4.3906941 -1.6754923 117.69
2.3856432 4.5459085 -1.6019704 117.69
26.59511 50.677708 4.0020685 117.69
2.3334892 4.4465275 -1.4399296 117.69
2.9354892 5.5936546 -1.6537319 117.69
3.759325 7.1634965 -1.9168696 117.69
4.1807942 7.9666176 -1.9123718 117.69
4.6587739 8.8774214 -1.8889216 117.69
4.7198462 8.9255362 -1.6588172 117.87
5.6855545 10.751754 -1.709324 117.87
6.8642559 12.980754 -1.7171719 117.87
8.1629877 15.436741 -1.6291387 117.87
9.0327787 17.081572 -1.3511829 117.87
2.0669334 3.9087055 -1.9686054 117.87
10.82599 20.472651 -1.0799901 117.87
2.1179311 4.0051455 -1.8924267 117.87
10.883439 20.581291 -0.54053301 117.87
2.25561 4.2655053 -1.884168 117.87
15.204832 28.753326 0 117.87
2.3114667 4.3711338 -1.79971 117.87
2.2719128 4.2963347 -1.6422001 117.87
26.246861 49.634521 2.6183612 117.87
2.4579248 4.6480956 -1.6406941 117.87
27.109529 51.265881 4.055223 117.87
2.5523541 4.8266678 -1.5656202 117.87
3.4170334 6.4618325 -1.9135679 117.87
3.7854502 7.1585326 -1.9187142 117.87
4.2003145 7.9430676 -1.9098768 117.87
4.6875591 8.8644791 -1.889292 117.87
4.7398138 8.8992996 -1.6565474 118.04
5.8282228 10.942856 -1.7424473 118.04
6.9363575 13.023449 -1.7255348 118.04
8.1301203 15.264814 -1.6135329 118.04
8.9258566 16.758858 -1.3277447 118.04
2.0682149 3.8832042 -1.9588437 118.04
2.1289377 3.9972148 -1.8916558 118.04
12.529166 23.5243 -0.61879981 118.04
2.2586224 4.2407064 -1.8761659 118.04
14.756998 27.707195 0 118.04
2.2139914 4.1569085 -1.7142049 118.04
2.3042457 4.3263664 -1.6562853 118.04
2.3774681 4.4638462 -1.5781404 118.04
27.249325 51.162327 4.0534091 118.04
2.5874503 4.8581014 -1.5782995 118.04
2.5848742 4.8532643 -1.4394813 118.04
3.8030138 7.1403985 -1.9168696 118.04
4.2312207 7.9443836 -1.9132034 118.04
4.7230787 8.8678789 -1.892995 118.04
4.7951179 8.9391108 -1.6665989 118.21
5.8831344 10.967402 -1.7491275 118.21
6.978724 13.009812 -1.726464 118.21
8.1810246 15.251153 -1.6146476 118.21
8.3710108 15.605328 -1.2383169 118.21
2.0684998 3.8561196 -1.9482685 118.21
11.021892 20.547129 -1.0873504 118.21
2.1416607 3.9925067 -1.8924267 118.21
11.098003 20.689018 -0.54508227 118.21
2.2817628 4.2536869 -1.8848956 118.21
14.844814 27.673862 0 118.21
2.2183199 4.1354156 -1.7080486 118.21
2.2946806 4.2777681 -1.6402794 118.21
2.6695721 4.976645 -1.7622269 118.21
27.397234 51.074219 4.0528512 118.21
2.6500189 4.9401937 -1.607517 118.21
2.5023162 4.664845 -1.3857919 118.21
3.8315427 7.1428032 -1.9205587 118.21
4.2547731 7.9317942 -1.9132034 118.21
4.7493696 8.8538256 -1.892995 118.21
4.8553896 8.9873524 -1.6782715 118.38
5.9090595 10.9377 -1.7471792 118.38
5.9229665 10.963443 -1.4572266 118.38
8.1817522 15.144467 -1.6059158 118.38
2.070379 3.8322828 -1.9393203 118.38
11.070463 20.491486 -1.0861392 118.38
2.1499884 3.9796402 -1.8893433 118.38
12.689449 23.488237 -0.61982107 118.38
2.2536399 4.1714997 -1.8514316 118.38
15.474424 28.643242 0 118.38
2.3163373 4.2875528 -1.7737164 118.38
2.3253751 4.3042817 -1.6530842 118.38
27.245987 50.432468 2.6731434 118.38
2.5926709 4.7990475 -1.7020563 118.38
27.323902 50.576691 4.0197864 118.38
2.6399922 4.8866396 -1.5926327 118.38
3.8369935 7.1022954 -1.9127196 118.38
4.2847977 7.9311833 -1.9161141 118.38
4.7765527 8.8414249 -1.8933654 118.38
4.8414764 8.8983631 -1.6643292 118.55
5.9225554 10.885326 -1.7416122 118.55
7.0681443 12.990855 -1.7294838 118.55
8.2323608 15.130621 -1.6070305 118.55
2.0721352 3.8084688 -1.9303721 118.55
11.022365 20.258492 -1.0755181 118.55
2.1582587 3.9667592 -1.8862599 118.55
12.735194 23.406576 -0.61866051 118.55
2.2766917 4.184432 -1.8601613 118.55
15.203766 27.943672 0 118.55
2.3047969 4.2360883 -1.7552474 118.55
2.4739687 4.5470161 -1.7491193 118.55
27.475708 50.498817 2.6809695 118.55
2.5567131 4.6990962 -1.6692901 118.55
27.435705 50.425293 4.0142059 118.55
2.4918478 4.5798774 -1.495057 118.55
27.579838 50.690205 5.3838305 118.55
2.5262549 4.6431155 -1.3837659 118.55
3.8571193 7.08917 -1.9122585 118.55
4.3185959 7.9373379 -1.9206882 118.55
5.3867822 9.835083 -1.8423375 118.71
5.9319987 10.830529 -1.7354885 118.71
8.2248383 15.016752 -1.5973697 118.71
10.249267 18.712914 -1.4919515 118.71
2.069597 3.7786305 -1.91817 118.71
11.083693 20.236393 -1.075984 118.71
2.1693277 3.9607167 -1.8862599 118.71
12.713103 23.21134 -0.61443615 118.71
2.2472005 4.1028953 -1.8266973 118.71
12.708843 23.203562 0 118.71
2.3364792 4.2658987 -1.7702962 118.71
2.5194237 4.5999155 -1.7721677 118.71
2.5340571 4.6266327 -1.6460558 118.71
2.4686096 4.5071402 -1.4735574 118.71
27.73085 50.630455 5.3856888 118.71
2.6228602 4.7887678 -1.4293512 118.71
3.877836 7.0800781 -1.9127196 118.71
4.3388643 7.9218154 -1.9198565 118.71
4.8264518 8.8120432 -1.892995 118.71
4.9208922 8.9178591 -1.6734079 118.89
5.9009285 10.693924 -1.7165611 118.89
8.2796707 15.004787 -1.598856 118.89
10.303185 18.671888 -1.4912539 118.89
2.0752785 3.7609119 -1.9124757 118.89
11.233116 20.357151 -1.0842758 118.89
2.179085 3.9490347 -1.8839474 118.89
11.400719 20.660887 -0.5478676 118.89
2.2771804 4.1268072 -1.8405194 118.89
15.464011 28.024569 0 118.89
2.3535013 4.2651196 -1.7730324 118.89
2.5974665 4.7072439 -1.6776305 118.89
2.4511769 4.4421315 -1.454814 118.89
27.891697 50.54657 5.3860602 118.89
2.4677653 4.4721937 -1.3371676 118.89
3.8981791 7.0644531 -1.9117974 118.89
4.3656206 7.911571 -1.9206882 118.89
4.8550615 8.7985582 -1.8933654 118.89
5.4316335 9.7787914 -1.8377981 119.05
5.9807763 10.767436 -1.731035 119.05
6.2021999 11.166073 -1.493698 119.05
8.1030102 14.58818 -1.5568688 119.05
8.947649 16.108818 -1.2885416 119.05
2.076014 3.7375326 -1.9035275 119.05
11.18224 20.131844 -1.0739343 119.05
2.1927927 3.9477739 -1.8862599 119.05
12.662266 22.796392 -0.60543036 119.05
2.3004558 4.1416044 -1.8499767 119.05
2.4274578 4.3702512 -1.8195472 119.05
2.3433464 4.218822 -1.6306759 119.05
27.769827 49.995152 2.6669943 119.05
2.4826672 4.4696469 -1.5954171 119.05
28.030672 50.46476 4.0366678 119.05
2.5046473 4.5092182 -1.4790701 119.05
2.4811838 4.4669766 -1.3376741 119.05
3.9197814 7.056942 -1.9127196 119.05
4.385797 7.8959289 -1.9198565 119.05
4.8815212 8.7884016 -1.8941059 119.05
5.4775271 9.7848339 -1.8423375 119.24
5.9380879 10.607561 -1.7084889 119.24
8.059907 14.397893 -1.5394051 119.24
10.385866 18.552893 -1.4867895 119.24
2.0857191 3.7258449 -1.901087 119.24
11.37873 20.326506 -1.0863255 119.24
2.225704 3.975908 -1.9032185 119.24
12.552223 22.422787 -0.59661025 119.24
2.3150871 4.1355786 -1.8507041 119.24
12.36608 22.090267 0 119.24
2.3317742 4.1653876 -1.7374623 119.24
12.333448 22.031975 0.5862118 119.24
2.3277068 4.1581216 -1.6101885 119.24
27.959862 49.946373 2.6693234 119.24
2.5730152 4.5963306 -1.6436728 119.24
27.463049 49.058884 3.9314749 119.24
2.5430639 4.5428267 -1.492852 119.24
2.5451279 4.546514 -1.3640124 119.24
3.9422109 7.0422068 -1.9122585 119.24
4.4167347 7.8898768 -1.9219357 119.24
4.909678 8.7704506 -1.8937356 119.24
5.1033816 9.0533485 -1.7074533 119.41
6.019135 10.677886 -1.7226846 119.41
2.0967648 3.71964 -1.901087 119.41
11.447819 20.308317 -1.087164 119.41
2.2438345 3.9805403 -1.9086144 119.41
12.424293 22.040571 -0.58741879 119.41
2.2706275 4.0280709 -1.8056004 119.41
12.39032 21.980305 0 119.41
2.3118219 4.1011491 -1.7135209 119.41
2.3716686 4.2073164 -1.6319565 119.41
2.5669534 4.5537496 -1.631162 119.41
27.633961 49.022373 3.9351022 119.41
2.5820212 4.5804801 -1.5077363 119.41
2.6469653 4.6956902 -1.4111171 119.41
3.9649994 7.0338697 -1.9131807 119.41
4.4410853 7.8784413 -1.9223515 119.41
4.9337487 8.7524204 -1.892995 119.41
4.8677049 8.5721931 -1.619584 119.59
6.0565629 10.665812 -1.723798 119.59
6.2728291 11.046665 -1.4855675 119.59
8.1201744 14.299904 -1.5342032 119.59
10.461568 18.423176 -1.481488 119.59
2.1048312 3.7066791 -1.8978332 119.59
12.084724 21.281609 -1.141294 119.59
2.247216 3.9574234 -1.900906 119.59
12.492486 21.999691 -0.58737236 119.59
2.2657921 3.9901369 -1.7917783 119.59
12.927425 22.765635 0 119.59
2.2959261 4.0432038 -1.6923157 119.59
2.4222989 4.2657504 -1.6575657 119.59
28.638039 50.432556 4.0555019 119.59
2.6191821 4.6124687 -1.5209669 119.59
2.6445072 4.6570668 -1.4020001 119.59
3.9957261 7.0366092 -1.9173309 119.59
4.4725761 7.8763585 -1.9252622 119.59
4.969955 8.7522593 -1.8963277 119.59
4.8735256 8.523448 -1.6130991 119.76
6.0714703 10.618567 -1.7190661 119.76
6.2779689 10.979719 -1.479063 119.76
8.1744289 14.296492 -1.5364326 119.76
10.491426 18.348755 -1.4780002 119.76
2.114913 3.6988316 -1.8970197 119.76
12.111123 21.181488 -1.1378468 119.76
2.1783366 3.8097551 -1.8330716 119.76
12.598396 22.033695 -0.58927566 119.76
2.2054918 3.8572476 -1.7350351 119.76
13.090218 22.893854 0 119.76
2.2650003 3.961324 -1.6608498 119.76
2.4387069 4.2651243 -1.6601267 119.76
2.4847927 4.3457251 -1.5620551 119.76
28.13592 49.20771 3.9637024 119.76
2.6404903 4.6180291 -1.5253772 119.76
2.6458285 4.6273651 -1.3954155 119.76
4.0078926 7.0095177 -1.9131807 119.76
4.4920421 7.8562603 -1.923599 119.76
4.9559035 8.6675205 -1.8811452 119.76
4.8643322 8.4559174 -1.6027234 119.91
6.0143175 10.454995 -1.6951283 119.91
8.2277164 14.30266 -1.5394051 119.91
10.511572 18.272802 -1.4740938 119.91
2.1273224 3.6980333 -1.8994601 119.91
12.090824 21.018097 -1.1307662 119.91
2.1625366 3.7592483 -1.8114879 119.91
12.546367 21.80999 -0.58416927 119.91
2.2267301 3.8708389 -1.7437649 119.91
13.093264 22.760691 0 119.91
2.2256951 3.8690398 -1.6245956 119.91
13.04188 22.671368 0.6072408 119.91
2.4545887 4.2669368 -1.6633278 119.91
2.6865625 4.6701894 -1.681205 119.91
28.455658 49.465927 3.9904888 119.91
2.588342 4.4994473 -1.4884417 119.91
2.6463566 4.600297 -1.3893374 119.91
4.0242891 6.9956274 -1.9122585 119.91
4.5125942 7.8444734 -1.923599 119.91
4.9619174 8.6255541 -1.8748502 119.91
4.875042 8.4132729 -1.5975356 120.09
6.0044355 10.362363 -1.6831595 120.09
7.0830731 12.223859 -1.6521275 120.09
8.7534227 15.106524 -1.2208778 120.09
2.1370976 3.6881702 -1.8978332 120.09
12.108716 20.897038 -1.1262941 120.09
2.1484292 3.707726 -1.7899042 120.09
12.475482 21.529995 -0.57771665 120.09
2.3995335 4.141078 -1.868891 120.09
13.093511 22.596581 0 120.09
2.2387815 3.8636546 -1.6252797 120.09
2.6447463 4.5642624 -1.6460558 120.09
28.575911 49.315868 3.985606 120.09
2.6362004 4.5495143 -1.5077363 120.09
2.6501255 4.5735459 -1.3837659 120.09
4.0442953 6.9795823 -1.9113363 120.09
4.5313311 7.8201022 -1.9211041 120.09
4.5593638 7.8684807 -1.7133975 120.09
5.0133581 8.5931005 -1.6344991 120.26
5.2576809 9.0118799 -1.4663278 120.26
7.0292182 12.048367 -1.6312205 120.26
8.3530655 14.317494 -1.5464649 120.26
8.7318506 14.966748 -1.2116699 120.26
2.1480312 3.681813 -1.8978332 120.26
12.210936 20.930042 -1.1300207 120.26
2.2142897 3.7953827 -1.8353841 120.26
12.572557 21.549877 -0.57924861 120.26
2.2334354 3.8281994 -1.7306702 120.26
16.855274 28.890629 0 120.26
2.4746904 4.2417207 -1.7873973 120.26
2.542671 4.3582416 -1.7049431 120.26
2.607286 4.4689946 -1.6144811 120.26
2.6099663 4.4735889 -1.4851341 120.26
3.6971774 6.3371134 -1.9206589 120.26
4.0698895 6.9759569 -1.9136418 120.26
4.5515566 7.8015537 -1.9198565 120.26
4.9833369 8.4803219 -1.6160173 120.44
