# .PCD v0.7 - Point Cloud Data file format
VERSION 0.7
FIELDS x y z intensity
SIZE 4 4 4 4
TYPE F F F F
COUNT 1 1 1 1
WIDTH 1222
HEIGHT 1
VIEWPOINT 0 0 0 1 0 0 0
POINTS 1222
DATA ascii
31.827517 -22.71073 0.90777415 215.50999
4.8738523 -3.4777684 -2.0231395 215.50999
31.847067 -22.72468 1.8244865 215.50999
5.1767869 -3.6939294 -1.9844415 215.50999
31.955053 -22.801735 2.7450569 215.50999
5.5430927 -3.9553094 -1.952615 215.50999
31.920517 -22.77709 3.6584558 215.50999
6.0368042 -4.3076005 -1.9414256 215.50999
31.868017 -22.739628 4.578196 215.50999
6.6519151 -4.7465167 -1.9362366 215.50999
31.87611 -22.745403 5.5034609 215.50999
7.3141317 -5.2190461 -1.9098768 215.50999
31.884027 -22.751053 6.4352117 215.50999
7.2538538 -5.176034 -1.6789593 215.50999
8.905612 -6.3969746 -1.8014832 215.69
9.9988241 -7.1822381 -1.7301999 215.69
11.579202 -8.3174362 -1.6672271 215.69
12.54738 -9.012887 -1.4413112 215.69
3.7321002 -2.6807985 -2.0458853 215.69
18.379272 -13.201983 -1.055301 215.69
4.0094824 -2.8800442 -2.0620127 215.69
4.3168821 -3.1008523 -2.0754948 215.69
31.697969 -22.768915 0 215.69
4.5486994 -3.2673683 -2.03844 215.69
31.635841 -22.724287 0.90433896 215.69
4.8552079 -3.487536 -2.0199382 215.69
31.652201 -22.736038 1.8174058 215.69
5.1605043 -3.7068331 -1.9826543 215.69
31.764973 -22.817043 2.7348723 215.69
5.6071501 -4.0276623 -1.9796275 215.69
31.724266 -22.787804 3.6441505 215.69
6.0232415 -4.3265443 -1.9414256 215.69
31.670578 -22.749237 4.5600762 215.69
6.6464539 -4.7742028 -1.9390033 215.69
31.688681 -22.762241 5.4834204 215.69
7.3024664 -5.2454219 -1.9111242 215.69
31.696989 -22.768209 6.4118662 215.69
7.2800546 -5.2602048 -1.475621 215.85001
9.9803343 -7.2112923 -1.7304783 215.85001
7.4194965 -5.3609586 -1.0704448 215.85001
12.53669 -9.0583868 -1.4429833 215.85001
3.7275615 -2.6933501 -2.0475123 215.85001
14.851024 -10.73061 -0.85443324 215.85001
4.0118952 -2.8987954 -2.0674088 215.85001
14.594128 -10.54499 -0.41802642 215.85001
4.3082061 -3.1128953 -2.0754948 215.85001
31.519165 -22.774178 0 215.85001
4.5441275 -3.28336 -2.0404921 215.85001
31.447468 -22.722374 0.90076452 215.85001
4.8423781 -3.4988613 -2.0186577 215.85001
31.471994 -22.740095 1.8106978 215.85001
5.1532278 -3.7234657 -1.9838458 215.85001
31.578228 -22.816854 2.7242694 215.85001
5.6021142 -4.0478086 -1.9818326 215.85001
31.532993 -22.78417 3.6294737 215.85001
6.0127044 -4.3444805 -1.9419321 215.85001
31.487776 -22.751499 4.5428863 215.85001
6.6394057 -4.7973037 -1.9408479 215.85001
31.502987 -22.762489 5.462266 215.85001
7.2322912 -5.2256932 -1.8965704 215.85001
31.510111 -22.767635 6.3868999 215.85001
7.2657628 -5.2866397 -1.4762694 216.03999
9.9435539 -7.2350264 -1.7282516 216.03999
11.56191 -8.4125576 -1.6721054 216.03999
12.524294 -9.1127977 -1.445027 216.03999
13.798327 -10.039798 -1.1932542 216.03999
3.7186096 -2.7056963 -2.0475123 216.03999
14.78305 -10.75629 -0.85256988 216.03999
4.0022602 -2.9120834 -2.0674088 216.03999
14.53806 -10.578034 -0.41742292 216.03999
4.2993665 -3.1282606 -2.0762222 216.03999
31.343203 -22.805618 0 216.03999
4.5347342 -3.2995167 -2.0411763 216.03999
31.266855 -22.750067 0.8977471 216.03999
4.820024 -3.5070965 -2.0141761 216.03999
31.272022 -22.753826 1.8035239 216.03999
5.1269579 -3.7304244 -1.978484 216.03999
31.366875 -22.822844 2.7125502 216.03999
5.5762239 -4.0573149 -1.9774224 216.03999
31.34133 -22.804256 3.6160972 216.03999
6.0013933 -4.366672 -1.9429451 216.03999
31.296505 -22.771641 4.5261602 216.03999
6.6391973 -4.8307443 -1.945459 216.03999
31.30562 -22.778273 5.4411116 216.03999
31.324326 -22.791883 6.3645272 216.03999
7.146862 -5.2001262 -1.6652579 216.03999
8.7994175 -6.4425588 -1.7917559 216.21001
9.9060631 -7.2527976 -1.7254682 216.21001
11.562543 -8.4656019 -1.6758223 216.21001
12.518088 -9.1652117 -1.4474422 216.21001
13.787796 -10.094837 -1.1949284 216.21001
2.6550369 -1.943905 -1.4650654 216.21001
14.680143 -10.748176 -0.84847051 216.21001
3.9787118 -2.9130435 -2.0597003 216.21001
4.2825499 -3.1355007 -2.0725849 216.21001
31.152758 -22.808722 0 216.21001
4.5264406 -3.3140671 -2.0418603 216.21001
31.076607 -22.752968 0.89421904 216.21001
4.7988958 -3.5135469 -2.0096943 216.21001
31.091534 -22.763897 1.7970023 216.21001
5.1204886 -3.7490036 -1.9802713 216.21001
31.170238 -22.821522 2.7013893 216.21001
5.5470977 -4.0613489 -1.9713584 216.21001
31.157845 -22.812447 3.6027207 216.21001
6.002461 -4.3947463 -1.9475037 216.21001
31.111799 -22.778734 4.5092025 216.21001
6.6216946 -4.8481226 -1.9445368 216.21001
31.129232 -22.791498 5.422184 216.21001
7.0398912 -5.1543083 -1.8545723 216.21001
31.12599 -22.789124 6.3379393 216.21001
7.0299096 -5.1470003 -1.6415585 216.21001
9.8940678 -7.289206 -1.7271382 216.38
11.575757 -8.5281487 -1.6813976 216.38
12.497252 -9.207037 -1.4481853 216.38
13.765815 -10.141619 -1.1956259 216.38
2.6595545 -1.9593601 -1.4707597 216.38
14.735044 -10.855675 -0.85350156 216.38
3.993824 -2.9423497 -2.0720339 216.38
4.2777276 -3.1515083 -2.0747674 216.38
30.994774 -22.834623 0 216.38
4.5226402 -3.3319416 -2.0445964 216.38
30.896276 -22.762056 0.89096957 216.38
4.7884498 -3.5277703 -2.0096943 216.38
30.909657 -22.771914 1.7903874 216.38
5.0985827 -3.756253 -1.976101 216.38
30.975492 -22.820417 2.6903677 216.38
5.5443101 -4.0846314 -1.974666 216.38
30.971382 -22.817389 3.5889728 216.38
5.9847217 -4.4090939 -1.9459841 216.38
30.925728 -22.783754 4.492012 216.38
6.5916123 -4.856205 -1.9399257 216.38
30.940287 -22.794481 5.4010296 216.38
6.9883418 -5.1484852 -1.8450084 216.38
30.95019 -22.801777 6.3158913 216.38
7.1285372 -5.251771 -1.6682204 216.38
7.1765399 -5.3181176 -1.4675149 216.53999
7.3435946 -5.4419122 -1.2845677 216.53999
11.555089 -8.5628061 -1.6818621 216.53999
12.484292 -9.2513857 -1.4496715 216.53999
3.6919205 -2.7358682 -2.0458853 216.53999
14.555395 -10.78616 -0.84483701 216.53999
3.9766955 -2.9468985 -2.0674088 216.53999
14.6203 -10.834257 -0.42248288 216.53999
4.2734003 -3.1667693 -2.0769498 216.53999
30.816799 -22.836542 0 216.53999
4.5057683 -3.3389635 -2.0411763 216.53999
30.713715 -22.760155 0.88753438 216.53999
4.7770572 -3.5400002 -2.0090542 216.53999
30.722349 -22.766552 1.7832136 216.53999
5.1064806 -3.7841167 -1.98325 216.53999
30.791422 -22.817738 2.6799042 216.53999
5.517436 -4.0886517 -1.9691533 216.53999
30.785948 -22.813681 3.5748532 216.53999
5.9739404 -4.4269409 -1.9464906 216.53999
30.745474 -22.783689 4.4750543 216.53999
6.5655169 -4.865324 -1.9362366 216.53999
30.75876 -22.793533 5.3804321 216.53999
7.0116596 -5.1959343 -1.8549881 216.53999
30.776987 -22.807041 6.2935185 216.53999
7.0869989 -5.2517643 -1.6619252 216.53999
7.3243175 -5.4633565 -1.501236 216.72
7.1502457 -5.3335128 -1.2536713 216.72
11.536093 -8.6050043 -1.6830236 216.72
12.464744 -9.2977037 -1.4507862 216.72
3.6803784 -2.7452683 -2.0442584 216.72
14.463787 -10.788831 -0.841483 216.72
3.9688971 -2.9604805 -2.0681796 216.72
14.619848 -10.90524 -0.42345774 216.72
4.2619376 -3.179065 -2.0762222 216.72
30.650318 -22.86269 0 216.72
4.5042949 -3.3598444 -2.0452805 216.72
30.536283 -22.77763 0.88447052 216.72
4.7659125 -3.5549903 -2.0090542 216.72
30.552988 -22.790091 1.7775304 216.72
5.0899763 -3.796716 -1.9814628 216.72
30.583652 -22.812963 2.6680455 216.72
5.516892 -4.1151609 -1.9735634 216.72
30.618353 -22.838848 3.5637062 216.72
5.9506979 -4.438746 -1.9434516 216.72
30.563879 -22.798214 4.4590254 216.72
6.5564394 -4.8905807 -1.9380811 216.72
30.575874 -22.807161 5.3609481 216.72
6.9482584 -5.1828461 -1.8425134 216.72
30.583376 -22.812757 6.2685518 216.72
6.9538846 -5.1870427 -1.6345227 216.72
7.2859774 -5.4684782 -1.4966966 216.89
9.8224573 -7.3722296 -1.7260247 216.89
11.532753 -8.6558886 -1.6862758 216.89
12.459399 -9.3513823 -1.4533873 216.89
13.72606 -10.302072 -1.2000904 216.89
3.6736782 -2.757273 -2.0450718 216.89
14.402951 -10.810111 -0.83980602 216.89
3.9659998 -2.9766746 -2.0712628 216.89
14.494677 -10.878956 -0.42076528 216.89
4.2509961 -3.1905782 -2.0754948 216.89
30.470379 -22.869492 0 216.89
4.501822 -3.378835 -2.0487006 216.89
30.350229 -22.779314 0.88103533 216.89
4.7704978 -3.5804892 -2.0154567 216.89
30.362202 -22.7883 1.7703565 216.89
5.0771618 -3.8106554 -1.980867 216.89
30.456789 -22.859293 2.6628835 216.89
5.5015826 -4.1292038 -1.9724609 216.89
30.421448 -22.832767 3.5486577 216.89
5.9421444 -4.4598665 -1.9449711 216.89
30.38171 -22.802942 4.4422994 216.89
6.5434566 -4.9111805 -1.9385422 216.89
30.395603 -22.81337 5.3411851 216.89
6.9453669 -5.2128339 -1.84584 216.89
30.408222 -22.822842 6.2465034 216.89
6.9227443 -5.1958542 -1.6308197 216.89
7.2057743 -5.4437556 -1.483727 217.07001
9.7850266 -7.3923063 -1.7235197 217.07001
11.489653 -8.6801033 -1.6839528 217.07001
12.437904 -9.3964796 -1.4543161 217.07001
3.6752026 -2.77651 -2.0507662 217.07001
14.413553 -10.889026 -0.84241468 217.07001
3.9463212 -2.9813323 -2.0658669 217.07001
14.460428 -10.924438 -0.42076528 217.07001
4.2394652 -3.2027943 -2.0747674 217.07001
30.288271 -22.88192 0 217.07001
4.4956832 -3.3963597 -2.0507529 217.07001
30.165245 -22.788977 0.87773943 217.07001
4.7622495 -3.5977428 -2.016737 217.07001
30.182062 -22.801682 1.7640212 217.07001
5.0575485 -3.8208327 -1.9778883 217.07001
30.282942 -22.877893 2.6539547 217.07001
5.500855 -4.1557379 -1.9768711 217.07001
30.249466 -22.852604 3.5369532 217.07001
5.9126658 -4.4668493 -1.9399061 217.07001
30.194218 -22.810865 4.4253416 217.07001
6.5357594 -4.9375787 -1.9408479 217.07001
30.214745 -22.826372 5.3219795 217.07001
6.9367609 -5.2405238 -1.8479191 217.07001
30.222996 -22.832605 6.2231579 217.07001
6.8734546 -5.1926975 -1.6230433 217.07001
7.0261908 -5.3409047 -1.4500059 217.24001
7.3490915 -5.5863552 -1.2973716 217.24001
11.45594 -8.7081442 -1.6827914 217.24001
11.553891 -8.7826004 -1.3539928 217.24001
3.6669483 -2.7874024 -2.0507662 217.24001
14.403448 -10.948669 -0.84371901 217.24001
3.9492116 -3.0019627 -2.0720339 217.24001
14.596681 -11.095553 -0.42568597 217.24001
4.2403259 -3.2232509 -2.0798597 217.24001
30.118343 -22.894226 0 217.24001
4.4855866 -3.4096837 -2.0507529 217.24001
29.987663 -22.794889 0.87453634 217.24001
4.7711635 -3.6267629 -2.0250602 217.24001
30.001352 -22.805296 1.7574064 217.24001
5.0598688 -3.8462203 -1.98325 217.24001
30.092627 -22.874678 2.6432123 217.24001
5.4976835 -4.1790218 -1.9801787 217.24001
30.076897 -22.86272 3.5246916 217.24001
5.9132495 -4.4949107 -1.9444647 217.24001
30.023611 -22.822214 4.4102421 217.24001
6.5365739 -4.9687257 -1.945459 217.24001
30.031784 -22.828428 5.3016601 217.24001
6.9445429 -5.2788405 -1.8541565 217.24001
30.043564 -22.837383 6.2001371 217.24001
6.9487691 -5.282053 -1.6445209 217.24001
30.026318 -22.824272 7.1061373 217.24001
7.0658035 -5.4061236 -1.4616786 217.42
7.2748795 -5.5660901 -1.2873511 217.42
11.61639 -8.8878279 -1.3645825 217.42
3.649467 -2.7922473 -2.0458853 217.42
14.470529 -11.07156 -0.84968168 217.42
3.9280357 -3.0053833 -2.0658669 217.42
4.22574 -3.23316 -2.0776772 217.42
29.92873 -22.8988 0 217.42
4.4778376 -3.4260428 -2.0521209 217.42
29.820623 -22.816088 0.87175101 217.42
4.768775 -3.6486421 -2.0289016 217.42
29.835945 -22.827808 1.7519095 217.42
5.0386629 -3.8551364 -1.9796755 217.42
29.866917 -22.851505 2.6296794 217.42
5.458571 -4.1764126 -1.9708071 217.42
29.903706 -22.879654 3.5128014 217.42
5.8883429 -4.5052357 -1.9409192 217.42
29.842907 -22.833136 4.3942132 217.42
6.5193863 -4.9880538 -1.9449979 217.42
29.852959 -22.840826 5.2827325 217.42
6.8688841 -5.2554588 -1.8383552 217.42
29.866655 -22.851307 6.1784129 217.42
6.9430676 -5.3122172 -1.6471131 217.42
29.835835 -22.827724 7.0779943 217.42
7.0428591 -5.419816 -1.4600574 217.58
10.421715 -8.0200071 -1.5378352 217.58
3.6445513 -2.804656 -2.0475123 217.58
14.392056 -11.075374 -0.84688669 217.58
3.925478 -3.0208428 -2.0689504 217.58
14.132853 -10.875905 -0.41403416 217.58
4.2137418 -3.2426755 -2.0762222 217.58
14.499627 -11.158155 0 217.58
4.4622951 -3.4339492 -2.0493846 217.58
29.641119 -22.810255 0.86836225 217.58
4.763072 -3.6654115 -2.0308223 217.58
29.656502 -22.822094 1.7451084 217.58
5.0324168 -3.872685 -1.9814628 217.58
29.703375 -22.858164 2.6208901 217.58
5.4758353 -4.2139168 -1.9812813 217.58
29.724491 -22.874414 3.4992392 217.58
5.8880053 -4.5311012 -1.9449711 217.58
29.66568 -22.829157 4.3774877 217.58
6.4915509 -4.9955583 -1.9408479 217.58
29.682327 -22.841969 5.2638049 217.58
6.8712354 -5.2877436 -1.8429292 217.58
29.697935 -22.853979 6.1566887 217.58
6.8736897 -5.2896323 -1.6341524 217.58
29.672285 -22.83424 7.0542946 217.58
7.0657587 -5.4708948 -1.4681634 217.75
6.8245811 -5.2841554 -1.2130327 217.75
10.43714 -8.0812979 -1.5436428 217.75
11.470535 -8.8814373 -1.3534355 217.75
13.648764 -10.568002 -1.2070661 217.75
3.634769 -2.8143387 -2.0466988 217.75
14.278568 -11.055649 -0.84213519 217.75
3.9121201 -3.0290871 -2.0666378 217.75
13.977206 -10.822309 -0.41041327 217.75
4.2085214 -3.2585855 -2.0784047 217.75
29.587605 -22.90917 0 217.75
4.4446568 -3.441421 -2.0459645 217.75
29.476871 -22.823431 0.86553055 217.75
4.75667 -3.6830075 -2.032743 217.75
29.490717 -22.834152 1.739332 217.75
5.0239234 -3.8899372 -1.9826543 217.75
29.523418 -22.859472 2.6109848 217.75
5.4633083 -4.2301455 -1.9812813 217.75
29.555719 -22.884483 3.487349 217.75
5.8806548 -4.5532894 -1.9469972 217.75
29.49572 -22.838026 4.3623881 217.75
6.4843941 -5.0207543 -1.9431535 217.75
29.515766 -22.853548 5.2462692 217.75
6.8261266 -5.2853518 -1.8350285 217.75
29.520763 -22.857418 6.1339917 217.75
6.9465451 -5.3785896 -1.6552597 217.75
29.495621 -22.83795 7.0283737 217.75
6.8153343 -5.3075037 -1.419203 217.91
6.9082422 -5.3798566 -1.2305685 217.91
10.412965 -8.1091909 -1.5434104 217.91
11.486539 -8.9452467 -1.3582659 217.91
3.6297786 -2.8267233 -2.0483258 217.91
14.192472 -11.052516 -0.83887434 217.91
3.8963659 -3.0343304 -2.0627837 217.91
14.284521 -11.124201 -0.42034748 217.91
4.2052846 -3.2749038 -2.0813146 217.91
29.42568 -22.915518 0 217.91
4.4261327 -3.4468911 -2.0418603 217.91
29.30575 -22.822119 0.86237383 217.91
4.746367 -3.6962764 -2.032743 217.91
29.313349 -22.828037 1.7326239 217.91
5.0235853 -3.9121628 -1.9868245 217.91
29.349279 -22.856018 2.6012189 217.91
5.4317555 -4.2300291 -1.9741148 217.91
29.391148 -22.888622 3.4754589 217.91
5.8511252 -4.5566168 -1.9414256 217.91
29.325254 -22.837309 4.3465915 217.91
6.4780254 -5.0448213 -1.945459 217.91
29.347137 -22.854351 5.2276201 217.91
6.8715358 -5.3512712 -1.8512456 217.91
29.354052 -22.859735 6.1125917 217.91
6.8276033 -5.3170581 -1.6304493 217.91
29.337139 -22.846563 7.005785 217.91
6.8613715 -5.3800025 -1.4324969 218.10001
7.2893534 -5.7155833 -1.3018252 218.10001
10.379764 -8.1387749 -1.5424813 218.10001
11.38316 -8.9255371 -1.349534 218.10001
3.6117582 -2.8319802 -2.0434449 218.10001
14.360123 -11.259774 -0.85098606 218.10001
3.8906391 -3.0506506 -2.0650961 218.10001
4.1885371 -3.2842329 -2.0784047 218.10001
29.24408 -22.930286 0 218.10001
4.4250307 -3.4696672 -2.0466485 218.10001
29.124487 -22.836514 0.8592636 218.10001
4.7266283 -3.7061498 -2.0295417 218.10001
29.146301 -22.853619 1.7272203 218.10001
5.0045748 -3.924088 -1.9844415 218.10001
29.169703 -22.871967 2.592011 218.10001
5.4146729 -4.2456455 -1.9730122 218.10001
29.205389 -22.89995 3.4624541 218.10001
5.8466406 -4.584352 -1.9449711 218.10001
29.147753 -22.854757 4.3314919 218.10001
6.4398198 -5.0494637 -1.9390033 218.10001
29.165207 -22.868443 5.2086926 218.10001
6.8337393 -5.358336 -1.84584 218.10001
29.175583 -22.876579 6.0911918 218.10001
6.658361 -5.2208219 -1.5941595 218.10001
29.142122 -22.850344 6.9772716 218.10001
6.8990088 -5.4406929 -1.443521 218.25999
7.0929685 -5.5936532 -1.269537 218.25999
10.33048 -8.1468172 -1.5385321 218.25999
12.385494 -9.7674417 -1.471594 218.25999
13.629353 -10.748373 -1.2137626 218.25999
3.606705 -2.8443179 -2.0450718 218.25999
14.419609 -11.371584 -0.8563897 218.25999
3.8806558 -3.0603607 -2.0643253 218.25999
13.896023 -10.958674 -0.4108775 218.25999
4.1808124 -3.2970703 -2.0791321 218.25999
29.073143 -22.927647 0 218.25999
4.4300814 -3.4936483 -2.053489 218.25999
28.960121 -22.838516 0.85629261 218.25999
4.7251868 -3.7263744 -2.0333831 218.25999
28.98354 -22.856983 1.7213508 218.25999
4.9995937 -3.9427769 -1.9868245 218.25999
28.997623 -22.86809 2.5823846 218.25999
5.404305 -4.26194 -1.9735634 218.25999
29.035 -22.897566 3.4498208 218.25999
5.8566041 -4.6186323 -1.9525687 218.25999
28.98399 -22.85734 4.3166246 218.25999
6.4058285 -5.0517612 -1.9330088 218.25999
29.00326 -22.872536 5.1911569 218.25999
6.752697 -5.3253083 -1.8279595 218.25999
29.00931 -22.877306 6.0697923 218.25999
6.7826495 -5.3489299 -1.6274869 218.25999
28.990232 -22.862263 6.9561644 218.25999
6.954535 -5.5200062 -1.4587604 218.44
7.0955272 -5.6319156 -1.2731556 218.44
10.342176 -8.2088709 -1.5441074 218.44
12.387502 -9.8323021 -1.4754955 218.44
13.587705 -10.784936 -1.213065 218.44
3.6020448 -2.8590422 -2.0475123 218.44
3.8652403 -3.0679476 -2.0612419 218.44
13.781655 -10.93888 -0.40850997 218.44
4.1689749 -3.3090301 -2.0784047 218.44
14.410411 -11.43794 0 218.44
4.4131956 -3.5028751 -2.0507529 218.44
28.784866 -22.847342 0.85322881 218.44
4.7193933 -3.7459123 -2.035944 218.44
28.808311 -22.86595 1.7152017 218.44
4.9826961 -3.9549034 -1.9850373 218.44
28.819374 -22.874731 2.5728977 218.44
5.3984184 -4.2848735 -1.9763198 218.44
28.866219 -22.911913 3.438302 218.44
5.8557043 -4.6478343 -1.9571272 218.44
28.806236 -22.864304 4.300828 218.44
6.3929753 -5.0742807 -1.9339311 218.44
28.83353 -22.885967 5.1736207 218.44
6.7052879 -5.3221722 -1.8196431 218.44
28.841455 -22.89226 6.0496893 218.44
6.7935219 -5.3922057 -1.6341524 218.44
28.859768 -22.906794 6.9420924 218.44
6.7552109 -5.3964758 -1.4204999 218.62
6.9478178 -5.5503416 -1.2497745 218.62
10.628294 -8.4905319 -1.5907999 218.62
12.367443 -9.8798704 -1.476796 218.62
13.567785 -10.838778 -1.2143207 218.62
3.5873351 -2.8657827 -2.0442584 218.62
3.8599086 -3.0835311 -2.0635545 218.62
4.1585584 -3.3221109 -2.0784047 218.62
14.160329 -11.312138 0 218.62
4.4109793 -3.5237603 -2.054857 218.62
28.620779 -22.864029 0.85048991 218.62
4.7120428 -3.7642682 -2.0378647 218.62
28.634874 -22.87529 1.7091459 218.62
4.9777055 -3.9764955 -1.988016 218.62
28.639812 -22.879234 2.5632713 218.62
5.3759179 -4.2946119 -1.9730122 218.62
28.696077 -22.924183 3.4265976 218.62
5.8395624 -4.665 -1.9566207 218.62
28.638039 -22.877817 4.2864256 218.62
6.3770022 -5.0943398 -1.9339311 218.62
28.664003 -22.89856 5.156085 218.62
6.7221608 -5.3700733 -1.8287913 218.62
28.66917 -22.902687 6.0286136 218.62
6.5968847 -5.2699952 -1.5908267 218.62
28.669422 -22.902887 6.9135795 218.62
6.9139638 -5.554997 -1.4571391 218.78
7.0280151 -5.6466312 -1.2670319 218.78
10.651 -8.5575037 -1.597769 218.78
11.080832 -8.9028502 -1.3261253 218.78
13.567016 -10.900366 -1.2169714 218.78
3.5793183 -2.8757894 -2.0442584 218.78
14.043262 -11.283005 -0.84008551 218.78
3.8527215 -3.095454 -2.0643253 218.78
4.1507177 -3.3348777 -2.0791321 218.78
14.431152 -11.594653 0 218.78
4.4055176 -3.5395956 -2.0569091 218.78
28.458622 -22.864967 0.84756535 218.78
4.6926503 -3.7702916 -2.0340233 218.78
28.47588 -22.878834 1.7034627 218.78
4.9636049 -3.9879889 -1.9868245 218.78
28.493378 -22.892893 2.5558772 218.78
5.3818889 -4.3240576 -1.9796275 218.78
28.541912 -22.931887 3.4158223 218.78
5.8491368 -4.6994662 -1.9642183 218.78
28.478029 -22.880562 4.2720227 218.78
6.3597174 -5.1096897 -1.9330088 218.78
28.501135 -22.899124 5.1382709 218.78
6.6873131 -5.3728957 -1.8233855 218.78
28.508177 -22.904783 6.0081863 218.78
6.6587501 -5.3499465 -1.609342 218.78
28.499634 -22.897919 6.8880281 218.78
6.7111506 -5.422956 -1.4175818 218.94
6.7934728 -5.4894767 -1.2275068 218.94
7.0471106 -5.6944289 -1.0595267 218.94
10.975385 -8.8686771 -1.3164645 218.94
13.552042 -10.950749 -1.2183666 218.94
2.6077545 -2.1072001 -1.4927235 218.94
3.839756 -3.102721 -2.0620127 218.94
14.150674 -11.434475 -0.42239004 218.94
4.1413884 -3.3464558 -2.0791321 218.94
14.361383 -11.604739 0 218.94
4.3985395 -3.5542469 -2.0582771 218.94
28.298237 -22.866436 0.84468722 218.94
4.659997 -3.7655182 -2.0244198 218.94
28.318644 -22.882927 1.6978728 218.94
4.950964 -4.0006342 -1.9862288 218.94
28.323814 -22.887104 2.5463903 218.94
5.3682976 -4.3378615 -1.9790763 218.94
28.373987 -22.927647 3.4033747 218.94
5.8359904 -4.7157817 -1.9642183 218.94
28.312048 -22.877596 4.256691 218.94
6.3378549 -5.121314 -1.9307033 218.94
28.343107 -22.902695 5.1212916 218.94
6.704237 -5.4173694 -1.8321178 218.94
28.348932 -22.9074 5.9880834 218.94
6.6728296 -5.3919907 -1.6163778 218.94
28.349972 -22.908241 6.867291 218.94
6.6680517 -5.4228449 -1.4120697 219.12
6.9759455 -5.6732416 -1.2636918 219.12
11.027806 -8.9684486 -1.3261253 219.12
3.827126 -3.1124399 -2.0604711 219.12
14.09917 -11.466258 -0.42192581 219.12
4.1308551 -3.3594496 -2.0791321 219.12
14.296926 -11.627085 0 219.12
4.3902678 -3.5704193 -2.0596454 219.12
28.128532 -22.875748 0.84176266 219.12
4.6510844 -3.7825303 -2.0257003 219.12
28.147419 -22.891106 1.69191 219.12
4.9413338 -4.0185776 -1.9874203 219.12
28.157352 -22.899183 2.5378799 219.12
5.3561344 -4.3559179 -1.9796275 219.12
28.204487 -22.937517 3.3916702 219.12
5.8241491 -4.7365341 -1.9652313 219.12
28.146027 -22.889973 4.2425203 219.12
6.3217344 -5.1411996 -1.9307033 219.12
28.172678 -22.911648 5.1034775 219.12
6.6097798 -5.3754544 -1.8109108 219.12
28.180367 -22.9179 5.9676561 219.12
6.6802545 -5.4327688 -1.6223027 219.12
28.192474 -22.927748 6.8465543 219.12
6.5495954 -5.3588729 -1.3903456 219.28999
6.5835366 -5.3866439 -1.1954969 219.28999
11.197063 -9.1614275 -1.691851 219.28999
10.988818 -8.9910412 -1.324639 219.28999
2.4548399 -2.008548 -1.4121896 219.28999
14.011855 -11.464488 -0.84427804 219.28999
3.8164461 -3.1226127 -2.0597003 219.28999
13.829868 -11.315586 -0.41486973 219.28999
4.1151018 -3.3669724 -2.0762222 219.28999
28.086672 -22.98049 0 219.28999
4.3854733 -3.5881901 -2.0623815 219.28999
27.966139 -22.88187 0.83893096 219.28999
4.6442404 -3.7999132 -2.027621 219.28999
27.975779 -22.889757 1.6856679 219.28999
4.9441648 -4.0453115 -1.9933778 219.28999
27.992004 -22.903032 2.5290906 219.28999
5.3521147 -4.3790951 -1.9829352 219.28999
28.040751 -22.942917 3.3801517 219.28999
5.8190546 -4.7611451 -1.9682703 219.28999
27.981129 -22.894135 4.2278852 219.28999
6.3079586 -5.1611662 -1.9311644 219.28999
28.01107 -22.918633 5.0864983 219.28999
6.5665483 -5.3727436 -1.803426 219.28999
28.022125 -22.927677 5.9485259 219.28999
6.6717114 -5.4587884 -1.6241542 219.28999
28.022406 -22.927908 6.821744 219.28999
6.4915934 -5.3455501 -1.3815911 219.47
6.4610882 -5.3204308 -1.1762911 219.47
11.2357 -9.25212 -1.7020724 219.47
12.350182 -10.169848 -1.4925876 219.47
12.852587 -10.583557 -1.1642356 219.47
13.853932 -11.408123 -0.83691782 219.47
3.7980695 -3.1275482 -2.0550752 219.47
13.928536 -11.469556 -0.41890842 219.47
4.1116943 -3.3858051 -2.0798597 219.47
27.92016 -22.991062 0 219.47
4.3727279 -3.6007552 -2.0616975 219.47
27.815397 -22.904795 0.83656347 219.47
4.6381302 -3.8193026 -2.0301819 219.47
27.817364 -22.906414 1.6804506 219.47
4.9343796 -4.063251 -1.9945693 219.47
27.825966 -22.913496 2.5205805 219.47
5.3398147 -4.39711 -1.9834864 219.47
27.871689 -22.951147 3.3684473 219.47
5.7816644 -4.7609539 -1.9606727 219.47
27.815525 -22.9049 4.2137151 219.47
6.2842016 -5.1747723 -1.9288588 219.47
27.839554 -22.924686 5.0684061 219.47
6.6024928 -5.4368715 -1.8179798 219.47
27.857025 -22.939072 5.9287472 219.47
6.5210142 -5.3697772 -1.5915674 219.47
27.856171 -22.938368 6.7987847 219.47
6.6671939 -5.523427 -1.4224454 219.64
7.1117635 -5.8917298 -1.2979283 219.64
11.298451 -9.3601856 -1.7157781 219.64
12.365957 -10.244559 -1.4981611 219.64
13.418781 -11.11677 -1.2185061 219.64
13.8231 -11.451727 -0.8371042 219.64
3.7873521 -3.1376262 -2.0543044 219.64
13.908301 -11.522312 -0.41932622 219.64
4.095892 -3.3932357 -2.0769498 219.64
14.087625 -11.670873 0 219.64
4.3605781 -3.6125145 -2.0610135 219.64
27.648773 -22.905586 0.83359247 219.64
4.6399097 -3.8439264 -2.035944 219.64
27.658508 -22.913651 1.6749537 219.64
4.9223018 -4.0778737 -1.9945693 219.64
27.668747 -22.922132 2.5124886 219.64
5.3297057 -4.4153872 -1.984589 219.64
27.712994 -22.95879 3.357486 219.64
5.8032713 -4.8077116 -1.9728287 219.64
27.655661 -22.911291 4.1997771 219.64
6.2733164 -5.1971197 -1.9302422 219.64
27.678379 -22.930113 5.0514269 219.64
6.6330333 -5.4951267 -1.8308704 219.64
27.693096 -22.942305 5.90832 219.64
6.7275386 -5.5734196 -1.6460022 219.64
27.695663 -22.944433 6.7761965 219.64
6.8938522 -5.7478194 -1.4746482 219.82001
9.7826481 -8.1563826 -1.7900444 219.82001
11.153035 -9.2989559 -1.6981232 219.82001
11.738745 -9.7872982 -1.4258912 219.82001
13.388388 -11.162704 -1.2189246 219.82001
3.536355 -2.948472 -2.0499527 219.82001
13.845365 -11.543714 -0.84064454 219.82001
3.7803111 -3.1518726 -2.055846 219.82001
4.0852118 -3.4060867 -2.0769498 219.82001
27.59486 -23.007496 0 219.82001
4.3492074 -3.6261957 -2.0610135 219.82001
27.473785 -22.906546 0.83048224 219.82001
4.6394529 -3.868191 -2.0410659 219.82001
27.498922 -22.927505 1.6696432 219.82001
4.9153318 -4.098208 -1.9969523 219.82001
27.498526 -22.927176 2.5035598 219.82001
5.3143315 -4.4308777 -1.9840376 219.82001
27.555079 -22.974327 3.3470821 219.82001
5.7955689 -4.8321142 -1.9753613 219.82001
27.488951 -22.919191 4.1853743 219.82001
6.2554631 -5.2155561 -1.929781 219.82001
27.521019 -22.945929 5.0358396 219.82001
6.6472907 -5.5422459 -1.8396026 219.82001
27.532967 -22.955891 5.889514 219.82001
6.6843333 -5.5731306 -1.639707 219.82001
27.544949 -22.965879 6.7569404 219.82001
6.7356219 -5.6478524 -1.4441695 219.98
6.9901714 -5.8612933 -1.2820626 219.98
10.754094 -9.0173607 -1.6412094 219.98
13.355635 -11.198766 -1.2187852 219.98
3.5281076 -2.9583359 -2.0499527 219.98
13.811543 -11.581048 -0.84055138 219.98
3.774323 -3.1647885 -2.0573876 219.98
4.0742564 -3.4162843 -2.0762222 219.98
27.437019 -23.006077 0 219.98
4.3534651 -3.6504023 -2.0678537 219.98
27.334637 -22.920229 0.82820755 219.98
4.630085 -3.882349 -2.0417061 219.98
27.336813 -22.922054 1.6636806 219.98
4.8994799 -4.1082382 -1.995165 219.98
27.344194 -22.928244 2.4953287 219.98
5.3093033 -4.4518771 -1.9867941 219.98
27.399261 -22.974417 3.3359351 219.98
5.7820525 -4.84828 -1.9753613 219.98
27.3396 -22.924391 4.1723652 219.98
6.245348 -5.2367554 -1.9311644 219.98
27.361225 -22.942522 5.0183039 219.98
6.732224 -5.6450033 -1.8674628 219.98
27.371971 -22.951532 5.8687625 219.98
6.7666368 -5.6738586 -1.6637768 219.98
27.38131 -22.959364 6.7325006 219.98
6.5966468 -5.5647383 -1.417906 220.14999
6.8622394 -5.7887845 -1.2617433 220.14999
10.713626 -9.0377016 -1.6391187 220.14999
11.724799 -9.8906975 -1.4310931 220.14999
13.342174 -11.255068 -1.2205988 220.14999
3.5165215 -2.9664347 -2.0483258 220.14999
13.769486 -11.615536 -0.84008551 220.14999
3.7649162 -3.1759732 -2.0573876 220.14999
13.632491 -11.49997 -0.41408056 220.14999
4.0669503 -3.4307604 -2.0776772 220.14999
27.284559 -23.016457 0 220.14999
4.3411784 -3.6620913 -2.0671697 220.14999
27.16717 -22.917431 0.82519019 220.14999
4.6142006 -3.8924046 -2.0397854 220.14999
27.177059 -22.925772 1.6580905 220.14999
4.9004025 -4.1338363 -2.0005269 220.14999
27.186069 -22.933374 2.4870973 220.14999
5.3048882 -4.4750485 -1.9901017 220.14999
27.245735 -22.983706 3.3255312 220.14999
5.7646842 -4.8629189 -1.9743483 220.14999
27.177322 -22.925995 4.1579628 220.14999
6.2312703 -5.2565174 -1.9316255 220.14999
27.206743 -22.950813 5.0024381 220.14999
6.7782488 -5.7179322 -1.8849274 220.14999
27.222292 -22.96393 5.8512535 220.14999
6.5875254 -5.5570436 -1.6237838 220.14999
27.215418 -22.958132 6.7084308 220.14999
6.7556539 -5.7312384 -1.455518 220.31
6.8203731 -5.7861438 -1.2570114 220.31
11.189741 -9.4929485 -1.7160105 220.31
11.715356 -9.9388599 -1.4333225 220.31
13.234622 -11.227747 -1.2136232 220.31
3.498471 -2.9679692 -2.0426314 220.31
13.918286 -11.807742 -0.85117239 220.31
3.7532179 -3.1840866 -2.055846 220.31
14.015042 -11.889826 -0.42670724 220.31
4.0587745 -3.4433093 -2.0784047 220.31
27.134773 -23.020103 0 220.31
4.3352346 -3.6778474 -2.069222 220.31
27.017683 -22.920771 0.82259053 220.31
4.6163163 -3.9163065 -2.0455475 220.31
27.026096 -22.927906 1.6527799 220.31
4.8830161 -4.1425643 -1.9981438 220.31
27.04281 -22.942085 2.4798427 220.31
5.2879725 -4.486114 -1.9884479 220.31
27.093372 -22.984982 3.3147559 220.31
5.7466559 -4.8752432 -1.9728287 220.31
27.031397 -22.932404 4.1454186 220.31
6.2328916 -5.2877469 -1.9366978 220.31
27.054951 -22.952387 4.9862938 220.31
6.7846317 -5.7558222 -1.8911648 220.31
27.066257 -22.961979 5.8314748 220.31
6.5794754 -5.5817752 -1.6256354 220.31
27.079262 -22.973011 6.6906562 220.31
6.8011408 -5.808723 -1.4694604 220.5
6.8990388 -5.8923359 -1.2751039 220.5
11.221642 -9.5841875 -1.725767 220.5
11.723217 -10.012573 -1.4383388 220.5
13.292894 -11.353204 -1.2224125 220.5
3.4886098 -2.9795542 -2.0426314 220.5
13.872977 -11.848642 -0.85079968 220.5
3.7412353 -3.1953168 -2.0550752 220.5
13.943608 -11.908967 -0.4257324 220.5
4.045917 -3.4555397 -2.0776772 220.5
26.965517 -23.030727 0 220.5
4.3373055 -3.7044089 -2.0760622 220.5
26.853344 -22.934923 0.81989813 220.5
4.6090674 -3.9365153 -2.0481086 220.5
26.870918 -22.949932 1.6479353 220.5
4.8779626 -4.1661739 -2.0017183 220.5
26.875557 -22.953894 2.4714718 220.5
5.2628336 -4.4948845 -1.984589 220.5
26.92312 -22.994516 3.3032372 220.5
5.7495832 -4.9106078 -1.9794133 220.5
26.870613 -22.949671 4.1324096 220.5
6.2064433 -5.3008032 -1.9339311 220.5
26.895859 -22.971233 4.9709849 220.5
6.7536068 -5.7681251 -1.8878381 220.5
26.910427 -22.983677 5.81429 220.5
6.5982924 -5.6354737 -1.6348929 220.5
26.91326 -22.986095 6.668438 220.5
8.448411 -7.2590866 -1.8300164 220.67
6.9971938 -6.0121651 -1.2965366 220.67
9.3851347 -8.0639439 -1.4470054 220.67
11.643615 -10.004486 -1.4322078 220.67
13.301521 -11.429002 -1.2263188 220.67
3.478368 -2.9887013 -2.0418179 220.67
13.799878 -11.857203 -0.84847051 220.67
3.7345376 -3.2088084 -2.0566168 220.67
4.0356464 -3.4675291 -2.0776772 220.67
26.798462 -23.025913 0 220.67
4.3163171 -3.708688 -2.071274 220.67
26.710865 -22.950647 0.81762344 220.67
4.5959301 -3.9489386 -2.0474682 220.67
26.714819 -22.954044 1.6425316 220.67
4.8583393 -4.1744075 -1.9987395 220.67
26.721077 -22.959421 2.4635196 220.67
5.2625976 -4.5217562 -1.9895505 220.67
26.770193 -23.001623 3.2928333 220.67
5.7276506 -4.9213409 -1.9768808 220.67
26.708988 -22.949034 4.1180067 220.67
6.1803555 -5.310317 -1.9307033 220.67
26.747969 -22.982527 4.9562325 220.67
6.7275596 -5.7804885 -1.8853432 220.67
26.746315 -22.981106 5.7935386 220.67
6.5636535 -5.6396561 -1.6304493 220.67
26.752516 -22.986435 6.6454792 220.67
6.6147542 -5.7197838 -1.436712 220.85001
6.994751 -6.048367 -1.2995985 220.85001
11.135839 -9.6291695 -1.7215856 220.85001
12.31708 -10.650589 -1.5191547 220.85001
13.327426 -11.524237 -1.2320389 220.85001
3.4606693 -2.9924438 -2.036937 220.85001
13.697578 -11.844308 -0.84446436 220.85001
3.7258344 -3.2217321 -2.0573876 220.85001
12.848191 -11.109841 -0.39435139 220.85001
4.0190964 -3.475316 -2.0747674 220.85001
26.645811 -23.040655 0 220.85001
4.3103309 -3.7271469 -2.0740101 220.85001
26.550911 -22.958595 0.81493098 220.85001
4.5820684 -3.9621184 -2.046828 220.85001
26.56097 -22.967293 1.6375006 220.85001
4.8379803 -4.1834059 -1.9957608 220.85001
26.556757 -22.96365 2.4550092 220.85001
5.2498202 -4.5395241 -1.9901017 220.85001
26.616459 -23.015276 3.2828009 220.85001
5.7209425 -4.9469037 -1.9799198 220.85001
26.554115 -22.961367 4.1052303 220.85001
6.2078052 -5.3678942 -1.9445368 220.85001
26.58275 -22.986128 4.9389749 220.85001
6.7004876 -5.7939177 -1.8828483 220.85001
26.594866 -22.996603 5.7763538 220.85001
6.6128049 -5.7180982 -1.6471131 220.85001
26.601376 -23.002232 6.6258531 220.85001
6.4146075 -5.5800657 -1.3968303 221.02
11.111716 -9.6660795 -1.7222825 221.02
12.205795 -10.617818 -1.5093082 221.02
13.231458 -11.510042 -1.2263188 221.02
3.4600463 -3.0098934 -2.0418179 221.02
17.346272 -15.089519 -1.0721642 221.02
3.7092969 -3.2267165 -2.0535336 221.02
12.893616 -11.216153 -0.39676532 221.02
4.0087671 -3.4872255 -2.0747674 221.02
26.494339 -23.047419 0 221.02
4.2978354 -3.7386861 -2.0733261 221.02
26.390654 -22.957222 0.81209928 221.02
4.5674334 -3.9732089 -2.0455475 221.02
26.399254 -22.964705 1.6317242 221.02
4.838511 -4.2090197 -2.0011225 221.02
26.41324 -22.976871 2.4480336 221.02
5.2450314 -4.5626516 -1.9934094 221.02
26.462416 -23.01965 3.2722113 221.02
5.678504 -4.9397292 -1.9702963 221.02
26.398943 -22.964436 4.0917568 221.02
6.2021289 -5.3952308 -1.9477646 221.02
26.427765 -22.989506 4.9228311 221.02
6.714263 -5.8407359 -1.8915806 221.02
26.441643 -23.001579 5.7578721 221.02
6.5839467 -5.7273741 -1.6441506 221.02
26.452934 -23.011402 6.6058564 221.02
6.7203002 -5.8811069 -1.4671906 221.19
9.084342 -7.9499407 -1.4116956 221.19
12.060348 -10.554318 -1.4951886 221.19
13.158213 -11.515088 -1.2226914 221.19
3.4538505 -3.022553 -2.0434449 221.19
17.343521 -15.177758 -1.0747728 221.19
3.7066507 -3.2437849 -2.0573876 221.19
12.915952 -11.30308 -0.39848292 221.19
3.9984028 -3.4991045 -2.0747674 221.19
26.34306 -23.053486 0 221.19
4.2923808 -3.7563722 -2.0760622 221.19
26.244179 -22.966953 0.80968535 221.19
4.5641794 -3.9942303 -2.0493889 221.19
26.251318 -22.9732 1.6267865 221.19
4.8303113 -4.227129 -2.0029099 221.19
26.260874 -22.981562 2.4402211 221.19
5.2329173 -4.5794597 -1.9939606 221.19
26.32057 -23.033804 3.2631078 221.19
5.6842065 -4.9743943 -1.9773873 221.19
26.248472 -22.970711 4.0789804 221.19
6.2007389 -5.426425 -1.9523758 221.19
26.283426 -23.001299 4.9086351 221.19
6.7027926 -5.8657851 -1.8932439 221.19
26.2812 -22.999352 5.7377691 221.19
6.537344 -5.7209969 -1.6367445 221.19
26.295799 -23.012127 6.5836382 221.19
6.7472596 -5.9401431 -1.4769179 221.36
6.9049602 -6.078979 -1.2929181 221.36
10.927427 -9.6202736 -1.7025369 221.36
12.009549 -10.572949 -1.4927734 221.36
13.156933 -11.583082 -1.2257607 221.36
3.440753 -3.0291653 -2.0410044 221.36
17.257923 -15.193507 -1.0722573 221.36
3.6873138 -3.246232 -2.0519917 221.36
13.71677 -12.075951 -0.42429331 221.36
3.9866047 -3.5097215 -2.0740399 221.36
26.19198 -23.058859 0 221.36
4.2826271 -3.7703333 -2.0767462 221.36
26.100883 -22.978659 0.80736428 221.36
4.5523081 -4.0077548 -2.0493889 221.36
26.097569 -22.97574 1.6214759 221.36
4.824913 -4.2477503 -2.0058885 221.36
26.105715 -22.982914 2.4321291 221.36
5.2322936 -4.6063995 -1.9989221 221.36
26.165421 -23.035477 3.2523324 221.36
5.6766829 -4.9976306 -1.9799198 221.36
26.102671 -22.980232 4.0669007 221.36
6.1831503 -5.4435134 -1.9519147 221.36
26.133305 -23.007202 4.8933263 221.36
6.7294092 -5.924428 -1.9057186 221.36
26.137299 -23.010719 5.7212329 221.36
6.5881991 -5.8001094 -1.6537786 221.36
26.144794 -23.017319 6.562901 221.36
6.7443795 -5.9732213 -1.4801604 221.53
6.7845907 -6.0088344 -1.2737123 221.53
8.0153809 -7.0988951 -1.2521045 221.53
13.164328 -11.659107 -1.2296671 221.53
3.4399569 -3.0466292 -2.0458853 221.53
17.215759 -15.247294 -1.0724436 221.53
3.6873367 -3.2657232 -2.0573876 221.53
13.935338 -12.34196 -0.43218499 221.53
3.9761736 -3.5215344 -2.0740399 221.53
23.293707 -20.630285 0 221.53
4.2742352 -3.7855155 -2.0781145 221.53
25.996666 -23.024183 0.80625015 221.53
4.5418153 -4.0225005 -2.0500293 221.53
25.961981 -22.993465 1.6172835 221.53
4.8122883 -4.2620473 -2.0058885 221.53
25.955263 -22.987516 2.4244561 221.53
5.2027721 -4.6078825 -1.9928581 221.53
26.014967 -23.040394 3.2421143 221.53
5.6632786 -5.0157342 -1.9804263 221.53
25.954069 -22.98646 4.0543561 221.53
6.1524034 -5.4489322 -1.9473035 221.53
25.986345 -23.015045 4.8785739 221.53
6.6971564 -5.9313979 -1.9015603 221.53
25.990608 -23.018818 5.7040482 221.53
6.6327567 -5.8743615 -1.6693313 221.53
25.998405 -23.025726 6.5432749 221.53
8.1134224 -7.2313361 -1.7855953 221.71001
10.764651 -9.5943251 -1.6862758 221.71001
13.123166 -11.696424 -1.2292485 221.71001
3.4344606 -3.0610681 -2.0483258 221.71001
17.182688 -15.314597 -1.0733753 221.71001
3.6715481 -3.2723796 -2.0543044 221.71001
24.640532 -21.96163 -0.76632756 221.71001
3.9609184 -3.5302899 -2.0718575 221.71001
25.892372 -23.07737 0 221.71001
4.2623219 -3.7989249 -2.0781145 221.71001
25.785389 -22.982018 0.80193293 221.71001
4.5291562 -4.0367489 -2.0500293 221.71001
25.786709 -22.983194 1.6108549 221.71001
4.8088522 -4.2860365 -2.0100589 221.71001
25.80249 -22.997259 2.4169223 221.71001
5.2069278 -4.6408339 -2.0000246 221.71001
25.863667 -23.051785 3.2322679 221.71001
5.6677141 -5.0515237 -1.9875174 221.71001
25.806097 -23.000475 4.0425091 221.71001
6.1367073 -5.4695282 -1.9477646 221.71001
25.828159 -23.020138 4.8624296 221.71001
6.6784892 -5.9524083 -1.9015603 221.71001
25.838606 -23.029449 5.6865392 221.71001
25.843775 -23.034056 6.5225382 221.71001
7.9783449 -7.1485119 -1.7599803 221.86
7.803062 -6.9914598 -1.4724514 221.86
8.2850504 -7.4233165 -1.3008878 221.86
11.163404 -10.002291 -1.3983952 221.86
13.095472 -11.733403 -1.2295276 221.86
3.4169095 -3.0615144 -2.0426314 221.86
12.982261 -11.631967 -0.81288081 221.86
3.6629684 -3.2819805 -2.0543044 221.86
24.672302 -22.106119 -0.76911288 221.86
3.9530501 -3.5418906 -2.0725849 221.86
24.990267 -22.391012 0 221.86
4.2537613 -3.8113246 -2.0787985 221.86
25.653654 -22.985399 0.79970473 221.86
4.5256281 -4.0549145 -2.0532303 221.86
25.674372 -23.003963 1.607594 221.86
4.8018804 -4.3024335 -2.0118461 221.86
25.663441 -22.994167 2.409528 221.86
5.190465 -4.6506009 -1.9983709 221.86
25.720175 -23.045002 3.221864 221.86
5.655911 -5.0676355 -1.9880239 221.86
25.661465 -22.992397 4.0292678 221.86
6.1499062 -5.5102501 -1.9565259 221.86
25.695526 -23.022917 4.8487906 221.86
6.6789103 -5.9842319 -1.9061344 221.86
25.700325 -23.027216 5.6693544 221.86
25.711658 -23.037371 6.5043931 221.86
8.0337315 -7.2463088 -1.7774893 222.05
10.343186 -9.3294039 -1.6288974 222.05
12.299442 -11.093918 -1.1582365 222.05
3.4013114 -3.0679333 -2.0393775 222.05
12.989605 -11.716434 -0.81576896 222.05
3.6479537 -3.2904012 -2.0519917 222.05
12.891833 -11.628246 -0.40307865 222.05
3.9426665 -3.5562279 -2.0733123 222.05
24.862415 -22.425535 0 222.05
4.238308 -3.8228922 -2.0774302 222.05
25.4986 -22.999367 0.79724437 222.05
4.5163774 -4.0737066 -2.055151 222.05
25.513388 -23.012705 1.6022836 222.05
4.7875867 -4.3183336 -2.0118461 222.05
25.501122 -23.00164 2.4014363 222.05
5.1750145 -4.6677876 -1.9983709 222.05
25.565243 -23.059477 3.2120173 222.05
5.6491318 -5.0954347 -1.9915694 222.05
25.511324 -23.010843 4.0176525 222.05
6.1287093 -5.5280066 -1.9556036 222.05
25.535212 -23.032389 4.8329253 222.05
6.6619344 -6.0089679 -1.906966 222.05
25.543221 -23.039614 5.6515212 222.05
7.6051593 -6.8597426 -1.9296552 222.05
25.56069 -23.05537 6.4855075 222.05
8.0604267 -7.3138771 -1.7881893 222.22
7.7472458 -7.0297027 -1.4702246 222.22
8.1043739 -7.353754 -1.2797484 222.22
11.535385 -10.466988 -1.4532014 222.22
12.28568 -11.147791 -1.1600502 222.22
3.3921938 -3.0780118 -2.0393775 222.22
17.167013 -15.577019 -1.081015 222.22
3.6368082 -3.2999701 -2.0512209 222.22
12.897255 -11.702723 -0.40433204 222.22
3.9293382 -3.5654066 -2.0718575 222.22
12.813343 -11.626583 0 222.22
4.2241631 -3.8329248 -2.0760622 222.22
25.357691 -23.009085 0.79496974 222.22
4.504271 -4.0870891 -2.055151 222.22
25.366581 -23.017151 1.5973457 222.22
4.7789946 -4.3363686 -2.0136333 222.22
25.363317 -23.014189 2.3948793 222.22
5.1497517 -4.6727862 -1.9939606 222.22
25.420025 -23.065645 3.2023566 222.22
5.6167946 -5.0965719 -1.9854914 222.22
25.354671 -23.006344 4.0037146 222.22
6.1310167 -5.5631676 -1.9615982 222.22
25.391956 -23.040176 4.8187294 222.22
6.6600127 -6.0431681 -1.91154 222.22
25.395824 -23.043686 5.6340122 222.22
7.5920501 -6.8888812 -1.9315066 222.22
25.406294 -23.053186 6.4636598 222.22
8.1302462 -7.4239345 -1.5473266 222.39999
11.362745 -10.375612 -1.435552 222.39999
12.262384 -11.197095 -1.1611663 222.39999
3.3879042 -3.0935814 -2.0426314 222.39999
17.129793 -15.641651 -1.0817603 222.39999
3.6332371 -3.3176014 -2.0550752 222.39999
24.490917 -22.363281 -0.76999491 222.39999
3.9208694 -3.5802457 -2.0733123 222.39999
25.300957 -23.102949 0 222.39999
4.2079372 -3.8423746 -2.0740101 222.39999
12.714252 -11.609707 0.39973632 222.39999
4.4928079 -4.1024971 -2.0557914 222.39999
25.221855 -23.030718 1.5927805 222.39999
4.773807 -4.3590851 -2.0172079 222.39999
25.214279 -23.0238 2.3876245 222.39999
5.11801 -4.6733856 -1.9873453 222.39999
25.270969 -23.075565 3.1926959 222.39999
5.6064706 -5.119411 -1.9875174 222.39999
25.213324 -23.022928 3.9927964 222.39999
6.1106348 -5.5797763 -1.960676 222.39999
25.240473 -23.047718 4.8036985 222.39999
6.6496625 -6.0719762 -1.9140351 222.39999
25.244608 -23.051495 5.6165032 222.39999
6.952085 -6.3481259 -1.7737571 222.39999
25.256823 -23.062649 6.4440336 222.39999
6.9284425 -6.3643374 -1.545657 222.57001
8.0848455 -7.4265881 -1.542873 222.57001
8.0519867 -7.3964038 -1.2785869 222.57001
11.334844 -10.411975 -1.4359236 222.57001
3.3800559 -3.104856 -2.0434449 222.57001
17.124506 -15.730249 -1.0843691 222.57001
3.6220183 -3.3271184 -2.0543044 222.57001
24.421513 -22.433144 -0.76990205 222.57001
3.9019973 -3.5843015 -2.0689476 222.57001
25.143923 -23.096737 0 222.57001
4.2020545 -3.8599284 -2.0767462 222.57001
25.070887 -23.029648 0.79037398 222.57001
4.4875927 -4.1222186 -2.0589924 222.57001
25.072489 -23.031118 1.5876564 222.57001
4.7650704 -4.3771048 -2.018995 222.57001
25.066511 -23.025629 2.380091 222.57001
5.115448 -4.6989546 -1.9917555 222.57001
25.129065 -23.083088 3.1834066 222.57001
5.5926809 -5.137332 -1.9880239 222.57001
25.070293 -23.029102 3.9809489 222.57001
6.0926194 -5.5965662 -1.9602149 222.57001
25.103424 -23.059536 4.7906165 222.57001
6.622973 -6.0837388 -1.91154 222.57001
25.104885 -23.060877 5.6006155 222.57001
6.9375615 -6.372714 -1.774868 222.57001
25.115911 -23.071007 6.4255185 222.57001
7.7411051 -7.1507945 -1.4810802 222.73
10.50898 -9.7076006 -1.6730347 222.73
11.378861 -10.511147 -1.4452127 222.73
13.197188 -12.190816 -1.256314 222.73
3.3767407 -3.119242 -2.0466988 222.73
15.177133 -14.019775 -0.96353161 222.73
3.610002 -3.3347154 -2.0527627 222.73
24.308834 -22.455124 -0.76832372 222.73
3.8892357 -3.5926557 -2.0674925 222.73
25.0235 -23.115294 0 222.73
4.1898785 -3.8703725 -2.0760622 222.73
12.764672 -11.791281 0.40345004 222.73
4.4746718 -4.1334486 -2.0583522 222.73
24.9347 -23.033262 1.582998 222.73
4.759841 -4.3968716 -2.0219738 222.73
24.928837 -23.027847 2.3731153 222.73
5.1065431 -4.717135 -1.9934094 222.73
25.003071 -23.09642 3.1756036 222.73
5.5783129 -5.1529298 -1.9880239 222.73
24.92709 -23.026234 3.9684048 222.73
6.0726786 -5.6095963 -1.9588314 222.73
24.963282 -23.059666 4.7761426 222.73
6.6203284 -6.1154842 -1.9156983 222.73
24.957756 -23.054562 5.5821338 222.73
6.9312882 -6.4027314 -1.7778304 222.73
24.979202 -23.074371 6.4070029 222.73
7.7419353 -7.1967688 -1.736635 222.91
7.7374597 -7.1926084 -1.4846987 222.91
10.312569 -9.5863848 -1.6465523 222.91
11.353076 -10.553623 -1.4461416 222.91
13.261115 -12.327302 -1.26608 222.91
3.3602338 -3.123615 -2.0426314 222.91
15.157888 -14.09051 -0.96511543 222.91
3.6035628 -3.3498096 -2.0550752 222.91
24.192772 -22.489182 -0.76688462 222.91
3.8683784 -3.5959775 -2.0624001 222.91
24.864332 -23.113453 0 222.91
4.1832047 -3.8886347 -2.0787985 222.91
24.781483 -23.036436 0.78554612 222.91
4.4616642 -4.1474857 -2.0583522 222.91
24.789053 -23.043472 1.5783397 222.91
4.7418094 -4.4079037 -2.0201864 222.91
24.784767 -23.03949 2.3662791 222.91
5.1071873 -4.7475529 -1.9994733 222.91
24.841417 -23.092152 3.1642709 222.91
5.5592628 -5.1677942 -1.9870108 222.91
24.781881 -23.036808 3.9567897 222.91
6.0906601 -5.6617718 -1.9703594 222.91
24.812382 -23.065161 4.7611117 222.91
6.6039491 -6.1389165 -1.91653 222.91
24.82016 -23.07239 5.5675426 222.91
6.9327321 -6.4445472 -1.783385 222.91
24.828854 -23.080471 6.3870068 222.91
7.8182364 -7.3059449 -1.7580348 223.06
7.7142615 -7.2087836 -1.4838636 223.06
11.466539 -10.715193 -1.4641627 223.06
13.282732 -12.412378 -1.271242 223.06
3.3573844 -3.1373911 -2.0458853 223.06
15.153061 -14.160154 -0.96716511 223.06
3.5893874 -3.354192 -2.0519917 223.06
24.141117 -22.559267 -0.76711679 223.06
3.8575897 -3.6048205 -2.0616727 223.06
24.73798 -23.117018 0 223.06
4.1743832 -3.900856 -2.0794826 223.06
24.639278 -23.024786 0.78294653 223.06
4.4535599 -4.1617393 -2.0596328 223.06
24.654196 -23.038725 1.5735881 223.06
4.7386227 -4.428124 -2.023761 223.06
24.65148 -23.036188 2.3593035 223.06
5.0989552 -4.7648449 -2.0011272 223.06
24.539354 -22.93141 3.1334307 223.06
5.5428872 -5.1796889 -1.9859979 223.06
24.646015 -23.03108 3.94471 223.06
6.0800824 -5.681684 -1.9717427 223.06
24.678112 -23.061075 4.7469163 223.06
6.5849962 -6.153513 -1.9156983 223.06
24.678921 -23.061831 5.5493851 223.06
6.9100924 -6.4573073 -1.7819037 223.06
24.696545 -23.078299 6.3684916 223.06
7.7855 -7.3264289 -1.7564137 223.25999
7.7828026 -7.3238907 -1.5019561 223.25999
7.8350267 -7.3730354 -1.2581444 223.25999
11.362357 -10.692377 -1.4556166 223.25999
13.214623 -12.435425 -1.2688702 223.25999
3.3517346 -3.1540999 -2.0491393 223.25999
15.131185 -14.238976 -0.96893525 223.25999
3.5722811 -3.3616421 -2.0489085 223.25999
24.049118 -22.631065 -0.76669896 223.25999
3.8436263 -3.6169872 -2.0609453 223.25999
24.585766 -23.136068 0 223.25999
4.1566353 -3.9115396 -2.0774302 223.25999
24.494688 -23.050362 0.780904 223.25999
4.4431448 -4.1811552 -2.0615535 223.25999
24.502335 -23.057556 1.569023 223.25999
4.7231369 -4.4446378 -2.023761 223.25999
24.505535 -23.06057 2.3530254 223.25999
5.0752912 -4.7760272 -1.9983709 223.25999
24.257582 -22.827234 3.1076069 223.25999
5.520546 -5.1950278 -1.9844784 223.25999
24.522072 -23.07613 3.937741 223.25999
6.0644646 -5.7068739 -1.9731262 223.25999
24.523905 -23.077856 4.7327204 223.25999
6.5791478 -6.1912088 -1.9202724 223.25999
24.536469 -23.08968 5.5354428 223.25999
6.8975291 -6.4908171 -1.7844959 223.25999
24.542837 -23.095673 6.349606 223.25999
7.2489676 -6.8598027 -1.6396869 223.42
7.7637587 -7.3469572 -1.5022345 223.42
7.8533635 -7.4317513 -1.2644165 223.42
11.3339 -10.725433 -1.4558024 223.42
13.236362 -12.525761 -1.2743113 223.42
3.3442409 -3.1647034 -2.0499527 223.42
15.136347 -14.323743 -0.97182345 223.42
3.5615394 -3.3703361 -2.0481377 223.42
23.978565 -22.691263 -0.76646686 223.42
3.1095686 -2.9426296 -1.6717445 223.42
24.454239 -23.141399 0 223.42
4.1593466 -3.9360497 -2.0842707 223.42
24.348896 -23.041712 0.77830434 223.42
4.4328279 -4.194849 -2.0621936 223.42
24.366747 -23.058603 1.5644578 223.42
4.703773 -4.4512486 -2.0207822 223.42
24.371485 -23.063087 2.3463287 223.42
5.0605378 -4.7888598 -1.9978195 223.42
24.402021 -23.091984 3.1343596 223.42
5.5102334 -5.2144132 -1.9859979 223.42
24.392609 -23.083076 3.9272873 223.42
6.055572 -5.7304749 -1.9754318 223.42
24.390316 -23.080908 4.7193599 223.42
6.5788841 -6.2256927 -1.9252622 223.42
24.407391 -23.097065 5.5208521 223.42
7.4404049 -7.0409627 -1.9300255 223.42
24.408297 -23.097923 6.331461 223.42
7.1814113 -6.8363762 -1.628987 223.59
7.7204084 -7.3494768 -1.4980593 223.59
7.8240848 -7.4481716 -1.263255 223.59
13.196249 -12.562227 -1.2740322 223.59
3.3176327 -3.1582351 -2.0393775 223.59
15.127062 -14.400272 -0.9739663 223.59
3.5608804 -3.3897958 -2.0535336 223.59
23.912582 -22.763687 -0.76651329 223.59
3.081933 -2.9338596 -1.6615598 223.59
24.317387 -23.149042 0 223.59
4.1490111 -3.9496691 -2.0849547 223.59
24.208014 -23.044924 0.77598327 223.59
4.424479 -4.2119021 -2.0641143 223.59
24.230213 -23.066057 1.560079 223.59
4.702991 -4.4770327 -2.026144 223.59
24.22636 -23.062389 2.3389347 223.59
5.0351667 -4.7932491 -1.9934094 223.59
24.282917 -23.116228 3.1278572 223.59
5.5087514 -5.2440796 -1.9910629 223.59
24.252073 -23.086866 3.9156723 223.59
6.0385427 -5.7484169 -1.9754318 223.59
24.251436 -23.08626 4.7057209 223.59
6.5703015 -6.2546272 -1.9281731 223.59
24.265852 -23.099983 5.5043159 223.59
7.4308696 -7.0738487 -1.9329879 223.59
24.262785 -23.097065 6.3114648 223.59
7.0981398 -6.7949905 -1.6143961 223.75
