# .PCD v0.7 - Point Cloud Data file format
VERSION 0.7
FIELDS x y z intensity
SIZE 4 4 4 4
TYPE F F F F
COUNT 1 1 1 1
WIDTH 1261
HEIGHT 1
VIEWPOINT 0 0 0 1 0 0 0
POINTS 1261
DATA ascii
4.4608459 6.0306888 -1.9637117 126.49
4.8700085 6.5838418 -1.9403868 126.49
5.3340721 7.2112164 -1.9065502 126.49
5.8591981 7.9211426 -1.8563349 126.49
6.7176781 9.0256004 -1.8484981 126.66
7.4971089 10.072812 -1.764715 126.66
7.9216156 10.643162 -1.551541 126.66
11.981308 16.097599 -1.4032212 126.66
2.5199616 3.3857183 -1.8791233 126.66
2.480314 3.3324492 -1.7351741 126.66
13.525854 18.172789 -0.52595663 126.66
2.5694907 3.4522636 -1.6804743 126.66
2.707665 3.6379089 -1.6505892 126.66
2.7546985 3.7011011 -1.5589697 126.66
3.7925236 5.0954809 -1.9820585 126.66
41.008999 55.098026 4.8028727 126.66
4.1128249 5.525825 -1.9752173 126.66
4.4775648 6.0158744 -1.9632052 126.66
4.8895216 6.5693631 -1.9403868 126.66
5.3507724 7.1890807 -1.904887 126.66
5.8850217 7.9068761 -1.8570756 126.66
6.7203841 8.9767885 -1.8423375 126.82
7.5536952 10.089888 -1.7713952 126.82
7.9405918 10.606687 -1.5494503 126.82
8.1069269 10.82887 -1.2620299 126.82
2.5107918 3.3538034 -1.8652942 126.82
13.452918 17.969807 -1.0468228 126.82
2.4918222 3.3284645 -1.7367158 126.82
13.636463 18.214977 -0.5282777 126.82
2.6784899 3.5778069 -1.7452198 126.82
11.57494 15.461287 0 126.82
2.6806448 3.5806854 -1.6280159 126.82
2.775243 3.7070453 -1.5647318 126.82
3.7998729 5.0757003 -1.978484 126.82
4.1478271 5.5404816 -1.984589 126.82
41.451183 55.368633 6.4528313 126.82
4.4862299 5.9925051 -1.9596597 126.82
4.9043489 6.5510097 -1.9390033 126.82
5.3696547 7.1725445 -1.904471 126.82
5.9094343 7.893558 -1.8578161 126.82
6.7378631 8.9414463 -1.8394194 127
7.5734367 10.05029 -1.7686118 127
8.0814676 10.72447 -1.5703574 127
10.645617 14.12721 -1.6503181 127
11.100453 14.7308 -1.2897972 127
2.5103199 3.3313072 -1.8571595 127
12.685714 16.834511 -0.9830035 127
2.5422494 3.3736789 -1.7644663 127
13.834407 18.358877 -0.53370899 127
2.6482329 3.5143239 -1.7183031 127
11.570496 15.354567 0 127
2.7224188 3.6127717 -1.646485 127
41.654495 55.277382 3.2277656 127
4.1698403 5.533565 -1.9867941 127
4.4992118 5.9706559 -1.9571272 127
4.9178782 6.5262446 -1.9362366 127
5.3921614 7.1556401 -1.904471 127
5.9235582 7.8608274 -1.8544834 127
6.7556534 8.9131584 -1.8374739 127.16
7.5811353 10.002269 -1.7638799 127.16
8.0081921 10.565713 -1.5503795 127.16
8.121726 10.715505 -1.2544127 127.16
2.5008512 3.2995303 -1.8433305 127.16
13.480875 17.786167 -1.040767 127.16
2.5561197 3.3724496 -1.7675496 127.16
14.007604 18.481113 -0.53839761 127.16
2.6411564 3.4846442 -1.7073909 127.16
11.586751 15.287129 0 127.16
2.8051515 3.7010131 -1.6902635 127.16
42.431877 55.983047 4.9121113 127.16
4.1817927 5.517303 -1.9851402 127.16
4.5205421 5.9642363 -1.9591532 127.16
4.9290304 6.50318 -1.93347 127.16
5.4133043 7.1421137 -1.904887 127.16
5.9442997 7.8426886 -1.8541131 127.16
6.803133 8.9142399 -1.8423375 127.35
7.6154637 9.9786491 -1.7641582 127.35
8.0106468 10.496462 -1.5441074 127.35
8.1487579 10.677432 -1.2531122 127.35
11.86806 15.550885 -1.3679245 127.35
2.4995859 3.2752423 -1.8343823 127.35
13.494937 17.682604 -1.0373198 127.35
2.5560927 3.3492842 -1.7598412 127.35
13.931739 18.254953 -0.53315192 127.35
2.6334832 3.4506898 -1.6950238 127.35
11.586419 15.181848 0 127.35
2.7763624 3.6379063 -1.6656381 127.35
2.9002264 3.8002071 -1.6153103 127.35
3.8524525 5.0479221 -1.9814628 127.35
4.1977334 5.5003486 -1.9840376 127.35
4.5414696 5.9507508 -1.9596597 127.35
4.941123 6.4744225 -1.929781 127.35
5.4322114 7.1179023 -1.9032236 127.35
5.9690819 7.8213711 -1.8537427 127.35
6.8324537 8.9042273 -1.8439587 127.5
7.6367393 9.9523926 -1.7630448 127.5
8.0139132 10.443934 -1.5394614 127.5
8.1900187 10.67344 -1.2551558 127.5
11.976747 15.6084 -1.3757372 127.5
2.4892435 3.2440453 -1.8205532 127.5
13.554562 17.664648 -1.0383446 127.5
2.5401363 3.3103702 -1.7428826 127.5
13.865067 18.069307 -0.52878833 127.5
2.54951 3.3225861 -1.6353706 127.5
11.531159 15.027699 0 127.5
2.7744358 3.6157153 -1.6587977 127.5
2.7359939 3.5656166 -1.518635 127.5
41.547863 54.146229 3.182766 127.5
3.8517077 5.0196433 -1.9743139 127.5
4.1933932 5.4649363 -1.9752173 127.5
4.5558548 5.9373059 -1.9591532 127.5
4.9296227 6.4244094 -1.9187142 127.5
5.4532094 7.1067605 -1.9040552 127.5
5.9943233 7.8119545 -1.855224 127.5
6.8534975 8.8705893 -1.8416891 127.69
7.6697006 9.9270134 -1.7630448 127.69
8.1116562 10.499043 -1.551541 127.69
8.1924953 10.603675 -1.2501397 127.69
11.986967 15.514919 -1.3709937 127.69
2.5312653 3.2762561 -1.8433305 127.69
12.915617 16.716885 -0.98514628 127.69
2.5341754 3.2800229 -1.7313199 127.69
13.863788 17.944117 -0.52646726 127.69
2.5810163 3.3406498 -1.6484652 127.69
24.345507 31.510771 0 127.69
2.7358532 3.5410576 -1.6286999 127.69
2.7582288 3.5700185 -1.5243971 127.69
3.8671649 5.005332 -1.973718 127.69
4.2173696 5.4586072 -1.9779737 127.69
4.573153 5.9191031 -1.9581403 127.69
4.985405 6.4526877 -1.9320866 127.69
5.4552169 7.0607729 -1.8965704 127.69
6.0238008 7.7966995 -1.8563349 127.69
6.8624997 8.8311577 -1.8374739 127.85
7.6888852 9.8946095 -1.7610965 127.85
8.1360683 10.470077 -1.5506119 127.85
8.289279 10.667239 -1.2603577 127.85
12.091456 15.560154 -1.3779694 127.85
2.5583417 3.292258 -1.856346 127.85
13.58989 17.488445 -1.0328478 127.85
2.5693698 3.3064497 -1.7490493 127.85
13.985002 17.996904 -0.52915967 127.85
2.7046483 3.4805355 -1.721213 127.85
24.035797 30.930988 0 127.85
2.8725812 3.6966438 -1.7039443 127.85
2.7670248 3.560806 -1.5237569 127.85
41.880299 53.894573 3.1829524 127.85
3.8916707 5.0080814 -1.9790798 127.85
4.2207999 5.4316282 -1.9724609 127.85
4.5956001 5.9139485 -1.9606727 127.85
4.9854927 6.4156904 -1.9251698 127.85
5.4761138 7.0470562 -1.8969862 127.85
6.0395198 7.7720876 -1.8544834 127.85
6.8655763 8.7812166 -1.8313134 128.02
7.7230887 9.8779936 -1.7622098 128.02
8.268651 10.575779 -1.5698929 128.02
8.3208923 10.642597 -1.2603577 128.02
12.159691 15.552502 -1.3804806 128.02
2.5635974 3.2788951 -1.8530922 128.02
13.582653 17.372499 -1.0283757 128.02
2.6735148 3.419482 -1.8130295 128.02
13.96814 17.865545 -0.52651364 128.02
2.7092259 3.465157 -1.7175757 128.02
24.132393 30.865839 0 128.02
2.9414158 3.7621329 -1.7381464 128.02
2.8114221 3.5958681 -1.5423237 128.02
3.9076889 4.9980164 -1.9796755 128.02
4.235713 5.4175663 -1.9719096 128.02
4.6071687 5.8926659 -1.9581403 128.02
5.0069041 6.4039359 -1.926092 128.02
5.4969983 7.030777 -1.8969862 128.02
6.0589218 7.7494888 -1.8533725 128.02
6.8665814 8.7227354 -1.8238558 128.21001
7.7496777 9.8445473 -1.7608181 128.21001
8.2987614 10.542058 -1.5689636 128.21001
8.3536749 10.611816 -1.2599862 128.21001
12.18775 15.482307 -1.3778299 128.21001
2.5597646 3.2517128 -1.842517 128.21001
13.577165 17.247303 -1.0236242 128.21001
2.634613 3.3467939 -1.7791123 128.21001
11.605735 14.742964 -0.43562019 128.21001
2.6861312 3.4122384 -1.6957513 128.21001
24.442446 31.049656 0 128.21001
2.6586041 3.37727 -1.5644001 128.21001
24.594166 31.242388 0.92313969 128.21001
2.8760705 3.6535215 -1.5711342 128.21001
24.550608 31.187056 1.8509458 128.21001
3.9206986 4.9805303 -1.9778883 128.21001
4.2512765 5.4004693 -1.9708071 128.21001
4.6302743 5.881916 -1.9596597 128.21001
5.031724 6.3918848 -1.9274755 128.21001
5.5166531 7.0078983 -1.8957388 128.21001
6.0858026 7.7308984 -1.8537427 128.21001
6.8994884 8.7143574 -1.8261255 128.37
7.7648449 9.8073406 -1.7580346 128.37
8.3959866 10.604501 -1.5817403 128.37
2.5711036 3.2474167 -1.844144 128.37
13.615354 17.196791 -1.0228789 128.37
2.6336389 3.3264017 -1.7721747 128.37
11.552533 14.591358 -0.43209216 128.37
2.582319 3.2615824 -1.6244584 128.37
11.499781 14.524728 0 128.37
2.6936901 3.4022491 -1.5794491 128.37
3.1203148 3.9410951 -1.6985407 128.37
3.9369617 4.9725556 -1.9790798 128.37
4.2711143 5.3946056 -1.9730122 128.37
4.6370735 5.8568277 -1.9556077 128.37
5.048346 6.3762827 -1.9270144 128.37
5.5216289 6.9740605 -1.8907489 128.37
6.1037073 7.7092509 -1.8526318 128.37
6.9139614 8.6827049 -1.8235315 128.53
7.7712283 9.7592802 -1.7533027 128.53
8.5097113 10.686684 -1.5975367 128.53
10.986771 13.797429 -1.6454878 128.53
12.072694 15.161155 -1.3552288 128.53
2.6074772 3.2745275 -1.8636672 128.53
11.60866 14.578411 -0.8690604 128.53
2.6256735 3.2973788 -1.760612 128.53
11.564589 14.523065 -0.43102446 128.53
2.5299098 3.1771166 -1.5859021 128.53
24.484663 30.748381 0 128.53
2.8038619 3.5211515 -1.6382765 128.53
3.1608157 3.9694219 -1.7145466 128.53
3.9496431 4.9600487 -1.978484 128.53
4.2717915 5.3646097 -1.9663969 128.53
4.6510005 5.8408289 -1.9545947 128.53
5.0697689 6.3667278 -1.9283977 128.53
5.5423012 6.960144 -1.8911648 128.53
6.1056228 7.6675758 -1.846707 128.53
6.9402475 8.6566505 -1.8228831 128.72
7.8146982 9.7473631 -1.7558079 128.72
11.003815 13.725184 -1.6412147 128.72
11.637438 14.515511 -1.3009583 128.72
2.6354647 3.2872455 -1.8758694 128.72
11.639444 14.518013 -0.86775607 128.72
2.6146605 3.2612963 -1.745966 128.72
24.741209 30.859995 -0.91831189 128.72
2.5520852 3.1832452 -1.5931768 128.72
11.513229 14.360584 0 128.72
2.8143475 3.5103679 -1.6375924 128.72
3.958904 4.9379864 -1.9749095 128.72
4.2883549 5.3489146 -1.9658456 128.72
4.6691332 5.823864 -1.9540882 128.72
5.0920711 6.3513989 -1.9288588 128.72
5.5726938 6.9508848 -1.8936597 128.72
6.1125751 7.6242852 -1.8411524 128.72
6.971827 8.6464539 -1.8248285 128.88
7.8431306 9.7270441 -1.7560862 128.88
9.1920424 11.399962 -1.7125258 128.88
10.999601 13.641696 -1.6348981 128.88
11.664152 14.465872 -1.2994236 128.88
2.6194036 3.2485821 -1.857973 128.88
13.558463 16.815195 -1.00732 128.88
2.5843723 3.2051363 -1.7197572 128.88
24.741947 30.684942 -0.91515523 128.88
2.6077399 3.234117 -1.6222759 128.88
38.566612 47.83028 0 128.88
2.8854823 3.5785728 -1.6731626 128.88
3.1754897 3.9382398 -1.7094247 128.88
3.9726779 4.9269118 -1.9749095 128.88
4.3068953 5.3414083 -1.9674995 128.88
4.679306 5.8032718 -1.9515557 128.88
5.1097879 6.3371544 -1.9288588 128.88
5.5933104 6.9368191 -1.8940755 128.88
6.1548147 7.6331959 -1.8474476 128.88
7.0126357 8.6413651 -1.8283951 129.06
7.8611703 9.6869774 -1.7533027 129.06
9.2616072 11.412676 -1.718798 129.06
11.026091 13.586971 -1.6324829 129.06
11.699483 14.416762 -1.2983075 129.06
2.6422608 3.2559428 -1.8669212 129.06
13.778656 16.978838 -1.0197113 129.06
2.6072206 3.2127645 -1.7282366 129.06
13.258224 16.337532 -0.48849437 129.06
2.6413662 3.2548404 -1.6368256 129.06
25.028917 30.842045 0 129.06
2.8315759 3.4892275 -1.6355404 129.06
3.1794887 3.9179454 -1.7049431 129.06
3.9917459 4.9188547 -1.9766968 129.06
46.166817 56.889359 5.1231947 129.06
4.338192 5.3457651 -1.9741148 129.06
4.6877608 5.7765236 -1.9475037 129.06
5.1272187 6.318048 -1.9279366 129.06
5.6224718 6.9283271 -1.8965704 129.06
6.1725721 7.6061916 -1.8455961 129.06
7.0107851 8.5868883 -1.8212619 129.23
7.8848672 9.6574736 -1.7521894 129.23
8.547925 10.469595 -1.5805787 129.23
11.060059 13.546484 -1.6315539 129.23
2.6472876 3.2424276 -1.8636672 129.23
13.825182 16.933239 -1.0194317 129.23
2.6004016 3.1850011 -1.7174447 129.23
13.374926 16.381758 -0.49100116 129.23
2.7511611 3.3696532 -1.6986612 129.23
2.7682238 3.3905513 -1.5931299 129.23
2.8052437 3.435894 -1.4987878 129.23
4.0027003 4.9025526 -1.9749095 129.23
4.3552499 5.3343592 -1.974666 129.23
4.7012086 5.7580934 -1.9459841 129.23
5.1434808 6.2997928 -1.9270144 129.23
5.6331058 6.8994913 -1.8932439 129.23
6.1814399 7.5710969 -1.8415227 129.23
7.0439916 8.5724449 -1.8228831 129.41
7.9051089 9.6204138 -1.7499626 129.41
8.5971689 10.462641 -1.5835986 129.41
12.348452 15.027903 -1.3601117 129.41
2.68414 3.2665629 -1.8823771 129.41
13.747671 16.730734 -1.0098355 129.41
2.6209395 3.1896486 -1.7243823 129.41
13.426324 16.339659 -0.49100116 129.41
2.6458237 3.2199326 -1.6273683 129.41
4.021719 4.8943787 -1.9766968 129.41
4.3646636 5.311738 -1.9713584 129.41
4.7143617 5.7373161 -1.9439582 129.41
5.1545978 6.2730775 -1.9237865 129.41
5.6323977 6.8545537 -1.885759 129.41
6.205195 7.55164 -1.8415227 129.41
7.086761 8.5755606 -1.8277467 129.57001
7.9243736 9.5891409 -1.7482924 129.57001
8.6149635 10.424811 -1.5815079 129.57001
10.214221 12.360044 -1.4959317 129.57001
2.6501873 3.2069435 -1.8522787 129.57001
13.730705 16.615276 -1.0051771 129.57001
2.6439435 3.1993883 -1.7336324 129.57001
13.283393 16.073994 -0.48413074 129.57001
2.6536183 3.2110953 -1.6266409 129.57001
2.9594953 3.5812316 -1.6909475 129.57001
3.770663 4.5628109 -2.0000908 129.57001
4.0365872 4.8846006 -1.9772925 129.57001
4.3794799 5.2995291 -1.9713584 129.57001
4.7402248 5.7360601 -1.9480102 129.57001
5.1658969 6.2511582 -1.9214809 129.57001
5.5854688 6.7588744 -1.8637204 129.57001
6.2187467 7.5251923 -1.8393009 129.57001
7.1058655 8.5469084 -1.8261255 129.74001
7.9489918 9.561018 -1.7474575 129.74001
11.134368 13.392376 -1.6248658 129.74001
2.4085562 2.8970025 -1.6773819 129.74001
13.751844 16.540667 -1.0031275 129.74001
2.7218544 3.2738364 -1.7783415 129.74001
13.241549 15.926885 -0.48088124 129.74001
34.917549 41.998699 0 129.74001
2.934063 3.5290799 -1.6704264 129.74001
3.7841845 4.5516028 -2.0000908 129.74001
4.0486212 4.8696661 -1.976101 129.74001
4.3902683 5.2805982 -1.9691533 129.74001
4.7535124 5.7175074 -1.9464906 129.74001
5.1893983 6.2417889 -1.9233253 129.74001
5.6017461 6.7377591 -1.8624729 129.74001
6.2435598 7.5097303 -1.8400415 129.74001
7.1136842 8.5018387 -1.8212619 129.92
7.9739056 9.5299225 -1.7463441 129.92
11.153384 13.32984 -1.6215216 129.92
12.418991 14.842416 -1.3532755 129.92
2.667383 3.1878922 -1.8506517 129.92
13.746049 16.428432 -0.99893498 129.92
2.709625 3.2383773 -1.7636954 129.92
13.327445 15.928144 -0.48218104 129.92
2.7628481 3.3019865 -1.6812017 129.92
34.933811 41.750744 0 129.92
2.7364914 3.2704866 -1.5520874 129.92
3.8033285 4.5455046 -2.0026519 129.92
4.0504227 4.8408165 -1.9695479 129.92
46.937386 56.09668 5.1146841 129.92
4.4080696 5.2682543 -1.9697045 129.92
4.7689681 5.6995778 -1.9454776 129.92
5.2152262 6.2329178 -1.9256309 129.92
5.675612 6.783143 -1.8799375 129.92
6.2709055 7.4946008 -1.8411524 129.92
7.0435576 8.3674574 -1.7969438 130.09
7.9893918 9.4910698 -1.7435606 130.09
9.3462934 11.103012 -1.697194 130.09
11.150566 13.246414 -1.6153908 130.09
12.443703 14.782607 -1.3511829 130.09
2.6627102 3.1631904 -1.84089 130.09
13.609465 16.167484 -0.98551899 130.09
13.485383 16.020081 -0.4861733 130.09
2.797828 3.323705 -1.6964787 130.09
35.065262 41.65609 0 130.09
2.7703893 3.2911088 -1.5657682 130.09
3.813138 4.5298514 -2.0007312 130.09
4.0647678 4.8287773 -1.9695479 130.09
4.4261575 5.2580934 -1.9708071 130.09
4.7808738 5.679482 -1.9434516 130.09
5.2286835 6.2114611 -1.9237865 130.09
5.724689 6.8006959 -1.8895015 130.09
6.2931147 7.4759617 -1.8411524 130.09
7.0608802 8.3347473 -1.7946742 130.27
8.011488 9.4568558 -1.7418905 130.27
9.3541632 11.041766 -1.6923157 130.27
11.189551 13.20828 -1.6150192 130.27
12.462999 14.711473 -1.3482531 130.27
2.6903498 3.1757209 -1.8530922 130.27
13.591746 16.043859 -0.9805811 130.27
2.7651434 3.2640083 -1.7868208 130.27
2.6854248 3.1699076 -1.6222759 130.27
35.152 41.493839 0 130.27
2.7928631 3.2967288 -1.5726086 130.27
3.8297997 4.520741 -2.0020115 130.27
46.320412 54.677166 3.3418019 130.27
4.0860882 4.823267 -1.9725266 130.27
4.4351983 5.2353611 -1.9674995 130.27
4.8036957 5.6703396 -1.9454776 130.27
5.2381077 6.183125 -1.9200975 130.27
5.7574067 6.7961116 -1.8932439 130.27
6.3038654 7.4411583 -1.8374494 130.27
7.1391625 8.3795938 -1.8086165 130.42999
8.0314436 9.4269094 -1.7404988 130.42999
9.3695021 10.997456 -1.6895281 130.42999
11.146323 13.083 -1.6035006 130.42999
12.416049 14.573341 -1.3387662 130.42999
2.8070338 3.2947567 -1.9271182 130.42999
13.442151 15.777729 -0.96660608 130.42999
2.7251775 3.1986778 -1.7552161 130.42999
13.559463 15.915423 -0.48543057 130.42999
2.7800481 3.2630823 -1.6739269 130.42999
35.45451 41.614742 0 130.42999
2.8215594 3.3118062 -1.5835533 130.42999
3.8387227 4.505702 -2.0000908 130.42999
46.502716 54.582581 3.3439448 130.42999
4.1032557 4.8161979 -1.9743139 130.42999
47.494366 55.746525 5.1211019 130.42999
4.4510479 5.2244186 -1.9680507 130.42999
4.8245306 5.6627941 -1.9475037 130.42999
5.2477813 6.159585 -1.9173309 130.42999
5.7700191 6.7725616 -1.8911648 130.42999
6.3233461 7.4220295 -1.837079 130.42999
7.1885753 8.3840923 -1.8144528 130.61
8.0571518 9.3971205 -1.7396637 130.61
9.4221077 10.989079 -1.6927803 130.61
10.658526 12.431125 -1.5277008 130.61
12.48255 14.558497 -1.3409984 130.61
2.7733676 3.234601 -1.8970197 130.61
13.673708 15.947755 -0.97964948 130.61
2.735213 3.1901007 -1.7552161 130.61
2.7175272 3.1694736 -1.6302782 130.61
35.713951 41.653465 0 130.61
2.8197169 3.2886584 -1.5767128 130.61
3.8528588 4.4936199 -2.0000908 130.61
4.1233368 4.8090806 -1.9766968 130.61
47.809517 55.76062 5.136169 130.61
4.4674387 5.2104096 -1.9680507 130.61
4.8448157 5.650547 -1.9485166 130.61
5.2671065 6.1430683 -1.9173309 130.61
5.7759867 6.7365794 -1.8861749 130.61
6.3632627 7.421524 -1.8418931 130.61
7.2263098 8.3776712 -1.8176953 130.78
8.0746498 9.3611755 -1.737437 130.78
9.4378042 10.941521 -1.6897603 130.78
11.196119 12.979986 -1.5992275 130.78
12.495719 14.48665 -1.3377897 130.78
2.4607413 2.852809 -1.6773819 130.78
13.720965 15.907114 -0.97964948 130.78
2.7229691 3.1568172 -1.7413409 130.78
13.580686 15.744483 -0.48273811 130.78
2.7184014 3.1515217 -1.625186 130.78
35.909229 41.630611 0 130.78
2.8257794 3.2760081 -1.5746608 130.78
3.8686497 4.4850378 -2.0013714 130.78
4.1363406 4.7953796 -1.976101 130.78
48.124611 55.792259 5.1522131 130.78
4.4828787 5.1971316 -1.9680507 130.78
4.8539772 5.627357 -1.9454776 130.78
5.271328 6.1112032 -1.9122585 130.78
5.8100047 6.7357073 -1.8907489 130.78
6.3647151 7.378799 -1.8359681 130.78
7.2550154 8.3606653 -1.8186679 130.95
8.1062832 9.3416643 -1.7382721 130.95
9.4519997 10.892465 -1.6865082 130.95
11.20848 12.916629 -1.5955119 130.95
2.6943202 3.1049292 -1.8303149 130.95
13.782506 15.882932 -0.98067433 130.95
2.8351336 3.2672019 -1.8068628 130.95
13.685 15.770566 -0.48478064 130.95
2.72774 3.1434422 -1.625186 130.95
13.933807 16.057291 0 130.95
2.812084 3.2406397 -1.561664 130.95
2.8884814 3.32868 -1.4891843 130.95
47.110088 54.28957 3.3520503 130.95
4.1455455 4.777318 -1.973718 130.95
4.502059 5.1881638 -1.9697045 130.95
4.8655806 5.6070848 -1.9434516 130.95
5.2843351 6.0896568 -1.910414 130.95
5.8376575 6.727304 -1.8932439 130.95
6.4200721 7.398478 -1.8455961 130.95
7.28093 8.3433466 -1.8193164 131.11
8.1180143 9.3025761 -1.7352102 131.11
9.4771557 10.860041 -1.6855789 131.11
10.346307 11.856017 -1.4680642 131.11
2.8026903 3.2116525 -1.8978332 131.11
13.90168 15.930182 -0.9859848 131.11
2.9085572 3.3329673 -1.8477176 131.11
13.714525 15.715717 -0.48427001 131.11
2.7316079 3.130198 -1.6222759 131.11
11.6142 13.308917 0 131.11
2.7828155 3.1888776 -1.5404587 131.11
47.692364 54.651527 3.3826089 131.11
4.1689124 4.7772307 -1.978484 131.11
48.874111 56.005711 5.197834 131.11
4.5064173 5.1639833 -1.9652944 131.11
4.8761306 5.5876446 -1.9414256 131.11
5.3230729 6.0998034 -1.9182531 131.11
5.8487029 6.7021322 -1.8907489 131.11
6.4717221 7.4160609 -1.8544834 131.11
7.2981372 8.3072948 -1.8167225 131.3
8.143589 9.2696533 -1.7340969 131.3
9.5000057 10.81363 -1.6832559 131.3
10.32248 11.749832 -1.4591465 131.3
2.8531194 3.2476375 -1.9246778 131.3
13.888501 15.808949 -0.98132646 131.3
2.9086316 3.3108258 -1.84078 131.3
13.589732 15.468867 -0.47804952 131.3
2.7690239 3.1519136 -1.6382805 131.3
37.556736 42.749935 0 131.3
2.7772498 3.1612771 -1.5315661 131.3
2.8962557 3.2967386 -1.4827819 131.3
4.1721306 4.7490368 -1.9725266 131.3
4.5235167 5.1490111 -1.9652944 131.3
4.8895254 5.56563 -1.9393996 131.3
5.2970314 6.0294843 -1.9016528 131.3
5.8618579 6.6724129 -1.8878381 131.3
6.4884958 7.3856997 -1.8522615 131.3
7.2806678 8.243783 -1.8069953 131.45
8.1389856 9.2156429 -1.7279732 131.45
9.4467554 10.696409 -1.6688533 131.45
10.720985 12.139199 -1.5109802 131.45
2.969255 3.3620396 -1.9970769 131.45
13.810817 15.637766 -0.97294146 131.45
2.8855264 3.2672353 -1.820738 131.45
13.709598 15.523156 -0.48083481 131.45
2.8709927 3.2507787 -1.6935688 131.45
37.75061 42.744408 0 131.45
2.7892487 3.1582215 -1.5336183 131.45
2.8948424 3.2777834 -1.4776601 131.45
4.1769662 4.7295117 -1.9689521 131.45
4.5357084 5.1357098 -1.964743 131.45
4.9079218 5.5571609 -1.9409192 131.45
5.3553109 6.0637326 -1.9168696 131.45
5.875421 6.6526446 -1.8865907 131.45
6.5104113 7.371634 -1.8530022 131.45
7.1938806 8.0912781 -1.7787863 131.64
8.1695013 9.1886024 -1.7279732 131.64
9.5138521 10.700653 -1.6744285 131.64
10.439656 11.741946 -1.4658347 131.64
2.8686988 3.2265534 -1.9222374 131.64
13.607727 15.305217 -0.95505339 131.64
3.0680168 3.4507351 -1.9286565 131.64
13.358452 15.024846 -0.46676907 131.64
2.9399366 3.3066776 -1.7277603 131.64
2.8796268 3.2388444 -1.5773969 131.64
60.957317 68.561409 2.1299617 131.64
4.1735983 4.694232 -1.9600158 131.64
4.5527143 5.1206408 -1.964743 131.64
4.9250374 5.5394087 -1.9404126 131.64
5.3728032 6.0430312 -1.9159474 131.64
5.9065485 6.6433582 -1.8895015 131.64
6.534821 7.3500042 -1.8530022 131.64
7.1889114 8.0375357 -1.7716529 131.81
8.2072916 9.1761322 -1.7301999 131.81
9.4992085 10.620556 -1.6662979 131.81
10.396123 11.623347 -1.4548734 131.81
2.8551166 3.1921527 -1.9067814 131.81
13.646419 15.257329 -0.95458758 131.81
3.1668243 3.5406563 -1.9841573 131.81
13.414969 14.998557 -0.46718687 131.81
2.9373147 3.284054 -1.7204856 131.81
13.867915 15.504972 0 131.81
3.0759082 3.439008 -1.6793189 131.81
3.9360156 4.4006481 -1.9949691 131.81
4.1811442 4.6747127 -1.9570371 131.81
51.912914 58.041046 5.4451904 131.81
4.5640426 5.1028109 -1.9630892 131.81
4.9388714 5.5218873 -1.9393996 131.81
5.3777356 6.012558 -1.9113363 131.81
5.9288421 6.6287203 -1.8903331 131.81
6.5356355 7.3071437 -1.8470773 131.81
7.211328 8.0174294 -1.7716529 131.97
8.2302351 9.1502323 -1.7296433 131.97
9.5128889 10.576264 -1.6635103 131.97
12.595082 14.002994 -1.3170022 131.97
2.9715424 3.3037093 -1.9783671 131.97
13.71302 15.245898 -0.95626456 131.97
2.9199963 3.2464013 -1.8238214 131.97
13.463487 14.968471 -0.46741897 131.97
3.0448976 3.3852642 -1.7779562 131.97
38.055397 42.30933 0 131.97
3.9482892 4.3896394 -1.9949691 131.97
4.1916285 4.6601796 -1.9558456 131.97
4.5795603 5.0914755 -1.9636406 131.97
4.9452152 5.4980044 -1.9358541 131.97
5.3814907 5.9830475 -1.906725 131.97
5.94733 6.6121383 -1.8903331 131.97
6.5494437 7.281558 -1.8452258 131.97
7.2721605 8.036973 -1.7807318 132.14
8.2254562 9.0905266 -1.722963 132.14
9.530899 10.533263 -1.6611873 132.14
11.424878 12.626431 -1.5886378 132.14
12.591061 13.915261 -1.3122588 132.14
2.9457812 3.2555888 -1.9547763 132.14
13.7086 15.150331 -0.95281744 132.14
2.9036133 3.208986 -1.8076336 132.14
13.523937 14.946249 -0.46797603 132.14
38.212971 42.231823 0 132.14
2.969568 3.2818773 -1.6109148 132.14
39.218212 43.342789 1.3570887 132.14
3.9625676 4.3793101 -1.9956093 132.14
4.2028751 4.6448908 -1.9546541 132.14
4.602386 5.0864186 -1.9669482 132.14
4.9602079 5.4818726 -1.9353476 132.14
5.4148879 5.9843707 -1.9122585 132.14
5.9590468 6.5857592 -1.8878381 132.14
6.573657 7.265008 -1.8459663 132.14
7.3412213 8.0622416 -1.7914317 132.32001
8.2513075 9.0617123 -1.7224063 132.32001
9.5131207 10.447454 -1.6523598 132.32001
11.461808 12.587533 -1.5882663 132.32001
3.0236514 3.3206203 -1.9995173 132.32001
13.71981 15.067307 -0.95030189 132.32001
2.9211352 3.2080355 -1.8122587 132.32001
13.537171 14.866729 -0.4668155 132.32001
3.0002961 3.2949712 -1.7401274 132.32001
28.912935 31.752626 0 132.32001
2.9532917 3.24335 -1.59655 132.32001
28.902452 31.741116 0.9966715 132.32001
3.9686518 4.3584342 -1.9917679 132.32001
28.870787 31.706339 1.9997333 132.32001
4.2341571 4.6500158 -1.9623988 132.32001
28.872057 31.707733 2.9986913 132.32001
4.6105766 5.0634055 -1.9636406 132.32001
4.9761028 5.4648323 -1.934841 132.32001
5.3943534 5.9241614 -1.898425 132.32001
5.9836588 6.5713453 -1.8890857 132.32001
6.5885086 7.2356009 -1.8437445 132.32001
7.2944584 7.9632945 -1.7742469 132.49001
8.2701311 9.0284271 -1.7207363 132.49001
9.588356 10.467522 -1.6600258 132.49001
11.49507 12.549064 -1.587709 132.49001
12.644834 13.804251 -1.30905 132.49001
3.0211492 3.2981613 -1.9913826 132.49001
13.786047 15.050103 -0.9517926 132.49001
13.52855 14.768996 -0.46500507 132.49001
2.9609823 3.2324777 -1.7117558 132.49001
2.9590936 3.2304158 -1.5944979 132.49001
52.947319 57.802109 1.819912 132.49001
3.9828458 4.3480368 -1.9924082 132.49001
4.2621207 4.6529188 -1.9689521 132.49001
4.6203852 5.0440331 -1.9614354 132.49001
4.9949093 5.4528971 -1.9358541 132.49001
5.4027052 5.8980846 -1.8951972 132.49001
6.0057726 6.556448 -1.8899173 132.49001
6.6139307 7.2203684 -1.8448554 132.49001
7.2993755 7.9185729 -1.7693833 132.67
8.2957687 8.9994888 -1.7201796 132.67
9.6265783 10.44319 -1.660955 132.67
11.492597 12.4675 -1.5819497 132.67
3.0005369 3.2550688 -1.9710457 132.67
13.772327 14.940617 -0.94760007 132.67
3.2471282 3.5225782 -2.001116 132.67
2.9483943 3.198503 -1.6986612 132.67
39.325848 42.661812 0 132.67
2.9781442 3.2307765 -1.5992862 132.67
3.9823596 4.320178 -1.9853655 132.67
4.2896576 4.6535439 -1.9749095 132.67
4.6336026 5.0266657 -1.9603329 132.67
5.0041471 5.4286427 -1.9328151 132.67
5.4436316 5.9054079 -1.9030361 132.67
6.0236888 6.5346708 -1.8890857 132.67
6.6339173 7.1966643 -1.8441149 132.67
6.7928443 7.3279047 -1.6416323 132.83
8.292593 8.9457855 -1.7143342 132.83
9.6273451 10.385674 -1.6560767 132.83
11.484047 12.388625 -1.5760046 132.83
12.676342 13.674834 -1.303888 132.83
2.9636574 3.1970992 -1.9409473 132.83
13.873755 14.966566 -0.95169944 132.83
3.2469156 3.5026693 -1.9949492 132.83
13.337299 14.387855 -0.45548862 132.83
2.9585812 3.1916232 -1.6993886 132.83
2.9731004 3.2072861 -1.5917617 132.83
4.006001 4.3215466 -1.9911276 132.83
4.3013382 4.6401467 -1.9743139 132.83
4.634552 4.9996071 -1.9548202 132.83
5.006134 5.4004579 -1.92775 132.83
5.4852386 5.9173012 -1.9117974 132.83
6.0365939 6.5120854 -1.8874223 132.83
6.6539884 7.1781111 -1.8441149 132.83
6.8360252 7.3281751 -1.6464959 133.00999
8.3071461 8.9052076 -1.7115508 133.00999
9.6057243 10.297274 -1.6467845 133.00999
11.513402 12.342293 -1.5747041 133.00999
12.657998 13.569292 -1.2976099 133.00999
3.0048442 3.2211735 -1.961284 133.00999
13.867558 14.865932 -0.94806588 133.00999
3.2654567 3.5005484 -1.9995743 133.00999
13.678397 14.663154 -0.46556211 133.00999
2.9889262 3.2041097 -1.7110283 133.00999
14.020418 15.029798 0 133.00999
2.9536762 3.1663218 -1.5760288 133.00999
3.0217769 3.2393253 -1.4968671 133.00999
4.3002663 4.6098576 -1.9671649 133.00999
4.65417 4.9892402 -1.9564739 133.00999
5.0191159 5.3804598 -1.9262305 133.00999
5.5038013 5.9000397 -1.9117974 133.00999
6.0490155 6.4845057 -1.8849274 133.00999
6.6684623 7.1485486 -1.8418931 133.00999
6.8793459 7.3308859 -1.6516838 133.17999
8.3159132 8.8617458 -1.7079324 133.17999
9.6375933 10.270177 -1.6470169 133.17999
11.526806 12.283391 -1.5715457 133.17999
12.677725 13.509852 -1.2955172 133.17999
2.9156175 3.1069899 -1.8970197 133.17999
13.851452 14.76062 -0.94396657 133.17999
3.2783544 3.4935358 -2.001116 133.17999
13.459146 14.342564 -0.45664918 133.17999
14.371513 15.314816 0 133.17999
3.0016394 3.198658 -1.59655 133.17999
4.3178444 4.6012549 -1.9689521 133.17999
4.6676373 4.9740071 -1.9559227 133.17999
5.0377059 5.3683658 -1.9272436 133.17999
5.5199513 5.8822641 -1.9113363 133.17999
6.0642128 6.4622498 -1.8836799 133.17999
6.7004023 7.1401968 -1.8448554 133.17999
6.8807454 7.2889152 -1.6468202 133.35001
8.332653 8.826951 -1.7059839 133.35001
9.7130222 10.289205 -1.6546829 133.35001
11.523559 12.207143 -1.5661581 133.35001
12.536971 13.280671 -1.2771015 133.35001
2.7254035 2.8870761 -1.7676774 133.35001
13.958272 14.786284 -0.94825226 133.35001
3.504086 3.7119505 -1.9932898 133.35001
39.760742 42.119373 0 133.35001
3.0317585 3.2116041 -1.6074947 133.35001
3.0331423 3.2130699 -1.4930257 133.35001
4.3275461 4.5842586 -1.9671649 133.35001
4.6942525 4.9727182 -1.9608841 133.35001
5.0589247 5.3590226 -1.9292696 133.35001
5.5427237 5.871521 -1.9131807 133.35001
6.0712738 6.4314256 -1.8799375 133.35001
6.6972733 7.0945592 -1.83819 133.35001
6.936317 7.304245 -1.6549262 133.52
8.3451691 8.7878275 -1.7032005 133.52
9.7900171 10.309316 -1.6625811 133.52
11.550129 12.16279 -1.5648575 133.52
12.544722 13.21014 -1.2738928 133.52
2.6811154 2.8233316 -1.7335116 133.52
13.805619 14.537921 -0.46546927 133.52
3.5202157 3.7069411 -1.9961997 133.52
11.743516 12.366436 0 133.52
3.0490391 3.2107716 -1.611599 133.52
3.0504906 3.2123001 -1.4968671 133.52
4.3398137 4.5700135 -1.9665691 133.52
4.6917758 4.9406447 -1.9537176 133.52
5.0641441 5.3327651 -1.9252175 133.52
5.5413585 5.8352928 -1.906725 133.52
6.0862885 6.4091277 -1.87869 133.52
6.7291207 7.0860586 -1.8411524 133.52
6.9647746 7.2907677 -1.6565474 133.69
8.3438444 8.7343864 -1.6976335 133.69
9.7890024 10.247186 -1.6572381 133.69
11.571034 12.112628 -1.5628139 133.69
12.57008 13.158435 -1.2724975 133.69
2.6995771 2.8259335 -1.7400193 133.69
13.978148 14.632409 -0.94368708 133.69
2.7484188 2.8770611 -1.6619438 133.69
13.797591 14.4434 -0.46375167 133.69
3.5363464 3.7018685 -1.9991096 133.69
14.119057 14.779913 0 133.69
3.7946301 3.9722412 -1.9994497 133.69
3.0534642 3.1963847 -1.4936658 133.69
4.3586297 4.5626392 -1.9689521 133.69
4.7170382 4.9378238 -1.9581277 133.69
5.078608 5.3163171 -1.924711 133.69
5.5653696 5.8258619 -1.9090307 133.69
6.0931158 6.3783097 -1.8749477 133.69
6.754189 7.0703249 -1.8422633 133.69
6.9466133 7.2261682 -1.6468202 133.87
9.8073797 10.202062 -1.6549151 133.87
11.574529 12.040327 -1.5581694 133.87
12.408104 12.907447 -1.2519892 133.87
2.7552919 2.866174 -1.7701179 133.87
13.961744 14.523611 -0.93949455 133.87
2.7638385 2.8750646 -1.6657979 133.87
13.960681 14.522505 -0.4676975 133.87
3.5453765 3.6880543 -1.9976547 133.87
40.302143 41.924038 0 133.87
3.8031831 3.9562359 -1.9973977 133.87
4.3716187 4.5475473 -1.9683564 133.87
4.7285304 4.9188223 -1.9564739 133.87
5.0912619 5.2961516 -1.9231915 133.87
5.5917368 5.8167667 -1.9117974 133.87
6.099566 6.3450332 -1.8707894 133.87
6.7668328 7.0391531 -1.8396713 133.87
7.0105529 7.249505 -1.6568717 134.03999
9.7657995 10.098662 -1.6428355 134.03999
12.43525 12.859101 -1.2508731 134.03999
2.7714045 2.8658667 -1.7749987 134.03999
12.122935 12.53614 -0.81325346 134.03999
2.8891013 2.9875751 -1.735945 134.03999
14.103785 14.584506 -0.47103986 134.03999
3.5575986 3.678858 -1.9983821 134.03999
11.778798 12.180273 0 134.03999
3.8070657 3.9368281 -1.9932934 134.03999
11.62273 12.018887 0.38817734 134.03999
4.0581679 4.1964889 -1.9725609 134.03999
4.3890738 4.5386739 -1.9701436 134.03999
4.7404313 4.9020066 -1.9553714 134.03999
5.0988836 5.2726769 -1.9201525 134.03999
5.6157351 5.8071451 -1.914103 134.03999
6.1333246 6.3423767 -1.8753635 134.03999
6.7876887 7.0190444 -1.8396713 134.03999
6.9603453 7.152483 -1.6396869 134.22
7.014019 7.2076387 -1.413442 134.22
9.796092 10.066509 -1.6426032 134.22
10.206288 10.488029 -1.3653257 134.22
12.404624 12.747049 -1.243758 134.22
2.8734138 2.9527335 -1.8343823 134.22
12.088413 12.42211 -0.80831563 134.22
13.969648 14.355276 -0.46505147 134.22
3.5639415 3.6623228 -1.9954722 134.22
3.8233471 3.928889 -1.9953455 134.22
4.0700102 4.1823611 -1.9719206 134.22
4.3993163 4.5207582 -1.9683564 134.22
4.7504444 4.8815789 -1.9531662 134.22
5.1086764 5.2496996 -1.9176199 134.22
5.6244502 5.7797112 -1.9108752 134.22
6.1368475 6.306253 -1.8703736 134.22
6.7672143 6.9540205 -1.8281918 134.22
7.0367594 7.1882114 -1.6526566 134.39
8.6461391 8.8322296 -1.4453793 134.39
10.575868 10.803493 -1.4104711 134.39
12.42983 12.697356 -1.2425023 134.39
2.9409556 3.0042539 -1.871802 134.39
12.087482 12.347641 -0.80580014 134.39
2.8195102 2.8801947 -1.6835275 134.39
14.340875 14.649533 -0.47596055 134.39
3.5800049 3.6570573 -1.9983821 134.39
3.8349874 3.9175277 -1.9953455 134.39
11.667958 11.919087 0.3872489 134.39
4.0744486 4.1621432 -1.9680792 134.39
4.4087038 4.503592 -1.9665691 134.39
4.7608728 4.8633413 -1.9515125 134.39
5.1377645 5.2483444 -1.922685 134.39
5.6334057 5.7546535 -1.9081085 134.39
6.1582685 6.2908125 -1.8712052 134.39
6.7836928 6.929698 -1.8270808 134.39
7.1537204 7.2669826 -1.6753534 134.55
7.1526742 7.2659197 -1.4329263 134.55
6.5330391 6.6364741 -1.089029 134.55
11.512647 11.694921 -1.5310448 134.55
2.867301 2.9126978 -1.8197397 134.55
12.054643 12.2455 -0.80132812 134.55
2.8715608 2.9170253 -1.7097362 134.55
14.315802 14.542459 -0.47377872 134.55
2.9367263 2.9832225 -1.6346431 134.55
11.774504 11.960925 0 134.55
3.8445938 3.9054639 -1.9946615 134.55
11.670338 11.85511 0.38622761 134.55
4.1046648 4.1696529 -1.9770426 134.55
4.425281 4.4953446 -1.9683564 134.55
4.7595997 4.8349566 -1.9454484 134.55
5.1428995 5.2243252 -1.9191395 134.55
5.6453581 5.7347388 -1.906725 134.55
6.1730666 6.2708025 -1.8703736 134.55
6.8195634 6.9275351 -1.8315245 134.55
7.0876245 7.1547403 -1.6546019 134.73
6.6750784 6.7382879 -1.3329999 134.73
6.5454679 6.60745 -1.0876352 134.73
9.8325567 9.9256659 -1.3034596 134.73
2.862293 2.8893974 -1.8107915 134.73
2.8911011 2.9184783 -1.7159029 134.73
14.541533 14.679234 -0.47972071 134.73
11.778241 11.889774 0 134.73
3.8502309 3.8866906 -1.9912412 134.73
4.1297455 4.1688519 -1.9828047 134.73
4.444756 4.4868455 -1.9707394 134.73
4.7950606 4.8404675 -1.9537176 134.73
5.1402235 5.188899 -1.9120485 134.73
5.6688247 5.7225056 -1.9085696 134.73
6.1817222 6.2402601 -1.867047 134.73
6.8426762 6.9074726 -1.8318949 134.73
6.6730156 6.6986876 -1.5534388 134.89
6.5666733 6.5919356 -1.3076705 134.89
9.8841276 9.9221535 -1.306618 134.89
12.592258 12.640702 -1.2476643 134.89
2.8987188 2.9098704 -1.8286879 134.89
2.884913 2.8960114 -1.7074237 134.89
14.542957 14.598906 -0.47842088 134.89
3.0135438 3.0251372 -1.6673796 134.89
11.795871 11.841251 0 134.89
3.8597431 3.8745921 -1.9905572 134.89
11.720726 11.765817 0.38557771 134.89
4.1239872 4.1398525 -1.9744816 134.89
4.4491839 4.4663005 -1.9671649 134.89
4.7977047 4.8161621 -1.9493073 134.89
5.1601558 5.1800075 -1.9140744 134.89
5.6724219 5.6942444 -1.9044195 134.89
6.1811757 6.2049556 -1.8616413 134.89
6.8411326 6.8674512 -1.8263403 134.89
6.6982188 6.6818719 -1.5544115 135.07001
6.5929585 6.5768685 -1.3087839 135.07001
9.1342869 9.1119947 -1.5087975 135.07001
11.557689 11.529482 -1.5230561 135.07001
2.887464 2.8804171 -1.7035694 135.07001
11.86663 11.837669 -0.38915217 135.07001
3.6297495 3.6208911 -2.0020196 135.07001
11.804694 11.775886 0 135.07001
3.8665743 3.8571382 -1.9878211 135.07001
4.1396551 4.1295524 -1.975762 135.07001
4.4645448 4.4536495 -1.9677606 135.07001
58.681946 58.538731 5.7960653 135.07001
4.806006 4.7942767 -1.946551 135.07001
5.1764035 5.1637707 -1.9140744 135.07001
5.6930385 5.6791444 -1.9053417 135.07001
6.1881738 6.1730719 -1.8578988 135.07001
6.8571076 6.840373 -1.824859 135.07001
6.630878 6.5732636 -1.5339843 135.25
6.6417189 6.5840101 -1.3143507 135.25
8.4701853 8.3965902 -1.3947376 135.25
11.564154 11.463675 -1.5191547 135.25
2.9973941 2.9713504 -1.8791233 135.25
12.597781 12.488321 -0.82722849 135.25
11.8711 11.767955 -0.38808447 135.25
3.6371377 3.6055353 -1.999837 135.25
3.8760035 3.8423257 -1.9864529 135.25
11.740461 11.638452 0.38381371 135.25
4.1499166 4.1138592 -1.9744816 135.25
4.48665 4.4476662 -1.9713351 135.25
4.8278704 4.7859221 -1.9493073 135.25
5.2035933 5.15838 -1.9181265 135.25
5.7011771 5.6516409 -1.9021139 135.25
6.2061472 6.1522231 -1.857483 135.25
6.8548346 6.7952743 -1.8185638 135.25
6.6334834 6.5369377 -1.5300934 135.42
8.5557661 8.4312429 -1.6881697 135.42
2.8500311 2.8085508 -1.7815065 135.42
12.015776 11.840894 -0.7867009 135.42
2.8524261 2.8109109 -1.6727356 135.42
12.724855 12.539654 -0.41477689 135.42
2.8038714 2.763063 -1.5371611 135.42
11.82655 11.654422 0 135.42
3.8740003 3.8176169 -1.9796126 135.42
11.749307 11.578303 0.38297811 135.42
4.1621046 4.1015282 -1.9744816 135.42
4.4889474 4.423614 -1.9665691 135.42
4.8256168 4.7553835 -1.942692 135.42
5.2119846 5.1361279 -1.915594 135.42
5.7248516 5.64153 -1.9044195 135.42
6.2313409 6.1406479 -1.8595622 135.42
6.8413682 6.741797 -1.8096765 135.42
6.7275691 6.5904231 -1.5472782 135.59
9.3102627 9.1204672 -1.5241295 135.59
2.7669888 2.7105818 -1.7245634 135.59
2.811976 2.7546518 -1.6442143 135.59
2.8014107 2.7443018 -1.5313412 135.59
3.8839679 3.8047905 -1.9789286 135.59
4.1742558 4.0891609 -1.9744816 135.59
4.500689 4.4089394 -1.9659733 135.59
4.8397055 4.7410445 -1.942692 135.59
5.227201 5.1206412 -1.915594 135.59
5.7387848 5.6217957 -1.9034972 135.59
6.2495332 6.1221318 -1.8595622 135.59
6.6858416 6.5495462 -1.7633885 135.59
6.6353965 6.4616604 -1.5216632 135.75999
8.6099033 8.384469 -1.6890048 135.75999
6.7585363 6.5815759 -1.1031994 135.75999
10.852543 10.568388 -1.413258 135.75999
2.7187333 2.6475482 -1.689584 135.75999
2.8280697 2.7540216 -1.6488394 135.75999
28.715122 27.963266 -0.93056715 135.75999
2.8108754 2.7372775 -1.5320687 135.75999
11.861111 11.550549 0 135.75999
3.8844683 3.7827604 -1.9734563 135.75999
11.781995 11.473504 0.38181758 135.75999
4.189085 4.0794015 -1.975762 135.75999
4.513751 4.3955665 -1.9659733 135.75999
4.8468642 4.7199578 -1.9399357 135.75999
5.2257376 5.0889111 -1.909516 135.75999
5.7428913 5.5925241 -1.8993472 135.75999
6.2774811 6.1131163 -1.8624729 135.75999
6.684124 6.5091124 -1.757834 135.75999
6.6159534 6.4023547 -1.5125844 135.94
8.6176996 8.3394737 -1.6853863 135.94
6.706377 6.4898591 -1.091352 135.94
12.566582 12.160864 -1.222831 135.94
2.9069142 2.8130634 -1.8010298 135.94
14.51456 14.045951 -0.94191688 135.94
2.9123001 2.8182755 -1.6927776 135.94
3.682971 3.5640647 -2.001292 135.94
32.936859 31.87348 0 135.94
3.8895802 3.7640035 -1.970036 135.94
11.74614 11.366911 0.37949648 135.94
4.20188 4.0662208 -1.975762 135.94
4.4959822 4.3508272 -1.9522711 135.94
4.8533792 4.6966858 -1.9366281 135.94
5.2514319 5.0818872 -1.9130615 135.94
5.7534399 5.5676875 -1.8970416 135.94
6.2854085 6.0824814 -1.8591464 135.94
6.6974783 6.4812474 -1.7559825 135.94
6.6309624 6.3811178 -1.5119359 136.10001
9.9464388 9.5716724 -1.6142625 136.10001
11.605238 11.16797 -1.50262 136.10001
12.511361 12.039952 -1.2141812 136.10001
2.9147584 2.8049347 -1.8010298 136.10001
12.842116 12.358245 -0.83114147 136.10001
2.9174993 2.8075724 -1.6912359 136.10001
12.907356 12.421027 -0.41589102 136.10001
32.900364 31.660727 0 136.10001
3.8946595 3.7479146 -1.9672998 136.10001
11.736056 11.293859 0.37815025 136.10001
4.2200451 4.0610404 -1.9789633 136.10001
4.5204954 4.3501701 -1.9576328 136.10001
4.8803287 4.696445 -1.9421408 136.10001
5.2586317 5.0604944 -1.9105289 136.10001
5.7689652 5.5515995 -1.8970416 136.10001
6.2896829 6.0526972 -1.8554039 136.10001
6.7311292 6.4775105 -1.7600558 136.10001
6.6202388 6.3352861 -1.5054511 136.25999
6.65801 6.3714314 -1.2951449 136.25999
6.9204822 6.6226058 -1.1201574 136.25999
11.623431 11.123128 -1.5009478 136.25999
12.426735 11.891855 -1.2027411 136.25999
2.7760549 2.6565661 -1.7107344 136.25999
2.8613284 2.7381692 -1.6542352 136.25999
33.043556 31.621275 0 136.25999
3.9146152 3.7461197 -1.9720881 136.25999
11.767549 11.261042 0.37815025 136.25999
4.231369 4.0492396 -1.9789633 136.25999
4.5340052 4.3388495 -1.9582286 136.25999
4.8837018 4.6734939 -1.9382819 136.25999
5.2769365 5.0498033 -1.9120485 136.25999
5.7816339 5.5327768 -1.8961194 136.25999
6.3023205 6.0310516 -1.8541565 136.25999
6.7293115 6.4396639 -1.7548716 136.25999
6.7256031 6.3935227 -1.5245813 136.45
6.8197751 6.4830451 -1.3224229 136.45
6.9424052 6.5996203 -1.1201574 136.45
11.64582 11.070802 -1.4990901 136.45
12.260768 11.655386 -1.1829302 136.45
2.7874975 2.6498635 -1.7123612 136.45
2.8396289 2.6994207 -1.6365058 136.45
12.981542 12.340571 -0.41584459 136.45
33.248253 31.606604 0 136.45
3.9242921 3.7305279 -1.9707201 136.45
11.701937 11.124147 0.37485433 136.45
4.2475204 4.0377965 -1.9802437 136.45
4.5428333 4.3185287 -1.9558456 136.45
4.882452 4.6413784 -1.9316666 136.45
5.2908487 5.0296102 -1.9110354 136.45
5.8070016 5.520278 -1.898425 136.45
6.3208675 6.0087714 -1.8537407 136.45
6.7420826 6.4091887 -1.7526498 136.45
6.6556106 6.2894988 -1.5044783 136.62
6.9023175 6.522635 -1.3346701 136.62
9.9852533 9.4359837 -1.6065965 136.62
11.674274 11.032096 -1.4985327 136.62
2.8072991 2.6528752 -1.7196826 136.62
2.9334702 2.7721059 -1.68584 136.62
33.26339 31.433638 0 136.62
3.9257817 3.7098322 -1.9659318 136.62
11.70292 11.059166 0.37383306 136.62
4.2581048 4.0238748 -1.9796034 136.62
4.5625648 4.3115873 -1.9588243 136.62
59.124435 55.87212 5.6883616 136.62
4.8962016 4.6268711 -1.9316666 136.62
5.2959046 5.0045877 -1.9074899 136.62
5.8176975 5.4976773 -1.8965805 136.62
6.3287153 5.9805851 -1.8508298 136.62
6.756784 6.3851066 -1.7515389 136.62
6.665266 6.2591014 -1.5022087 136.8
6.8246002 6.4087262 -1.3157425 136.8
10.016295 9.4059277 -1.6068288 136.8
10.948219 10.281062 -1.4011819 136.8
12.706968 11.932638 -1.2189246 136.8
2.860904 2.6865675 -1.7473406 136.8
2.9650347 2.784353 -1.6989443 136.8
12.817646 12.036571 -0.40823147 136.8
11.851572 11.129367 0 136.8
3.9428971 3.7026267 -1.968668 136.8
4.2665815 4.0065866 -1.9776827 136.8
4.5760875 4.2972322 -1.9588243 136.8
4.9009027 4.6022544 -1.9278077 136.8
5.3186531 4.9945478 -1.9100224 136.8
5.8335214 5.4780412 -1.8961194 136.8
6.343194 5.956656 -1.8495824 136.8
6.749588 6.338285 -1.744503 136.8
6.6563973 6.2137103 -1.4960481 136.97
6.876884 6.4195328 -1.3221445 136.97
10.064489 9.3951445 -1.610081 136.97
2.8194454 2.6319368 -1.7172421 136.97
13.085237 12.214996 -0.83477503 136.97
2.8869445 2.6949468 -1.6496103 136.97
13.047695 12.179952 -0.41440552 136.97
2.917078 2.7230761 -1.5582579 136.97
11.830447 11.043657 0 136.97
3.9497442 3.6870644 -1.9666158 136.97
4.2826056 3.9977887 -1.9796034 136.97
4.5943999 4.288847 -1.9612073 136.97
4.9103203 4.5837569 -1.9261539 136.97
5.3277917 4.973464 -1.9079964 136.97
5.8426361 5.4540687 -1.8938137 136.97
6.3451095 5.9231248 -1.8450084 136.97
6.7884784 6.337007 -1.7496873 136.97
6.636117 6.1601882 -1.4876179 137.13
6.7104387 6.2291803 -1.2867945 137.13
10.11398 9.3886261 -1.6137978 137.13
11.614388 10.781428 -1.4784681 137.13
12.879303 11.955626 -1.2288301 137.13
2.8133934 2.6116228 -1.7091074 137.13
12.842561 11.921519 -0.81716645 137.13
2.9106896 2.701941 -1.6588603 137.13
11.915196 11.060663 -0.37745395 137.13
3.9572701 3.6734629 -1.9652478 137.13
11.708574 10.86886 0.3709085 137.13
4.2909756 3.9832358 -1.978323 137.13
4.6021609 4.2721038 -1.9594201 137.13
4.9005575 4.5490994 -1.9173335 137.13
5.3374052 4.9546175 -1.9064769 137.13
5.852139 5.4324355 -1.8919693 137.13
6.3587575 5.9027209 -1.8441767 137.13
6.8205523 6.3313966 -1.7533903 137.13
6.8835263 6.3519349 -1.5388479 137.3
6.8395114 6.3113198 -1.3079488 137.3
6.8964767 6.3638859 -1.0973918 137.3
11.619983 10.722611 -1.4751239 137.3
12.92205 11.924125 -1.2295276 137.3
2.8251581 2.6069808 -1.7115479 137.3
11.973445 11.048777 -0.7597757 137.3
2.9783695 2.7483602 -1.6927776 137.3
12.951584 11.951378 -0.4091599 137.3
2.9286058 2.7024398 -1.5560755 137.3
11.7895 10.879038 0 137.3
3.9653897 3.6591563 -1.9638797 137.3
4.3069525 3.9743414 -1.9802437 137.3
4.6063976 4.2506614 -1.9558456 137.3
4.9168591 4.537147 -1.9184361 137.3
5.3591919 4.9453201 -1.9090095 137.3
5.851069 5.3992109 -1.8864359 137.3
6.3863072 5.893115 -1.8470875 137.3
6.7107553 6.1925068 -1.7204332 137.3
6.9979806 6.4169631 -1.3343917 137.48
9.8973551 9.075613 -1.5703574 137.48
11.795979 10.816601 -1.493145 137.48
12.04333 11.043416 -1.142611 137.48
2.8360276 2.6005623 -1.7131747 137.48
12.954903 11.879303 -0.819682 137.48
11.883802 10.897132 -0.37434369 137.48
3.0002444 2.7511449 -1.5895395 137.48
3.9796362 3.6492209 -1.9652478 137.48
4.319417 3.9607911 -1.9802437 137.48
4.6141 4.2310081 -1.9534626 137.48
4.9367566 4.526875 -1.9206411 137.48
5.3490329 4.904922 -1.8998923 137.48
5.8464866 5.3610735 -1.8795191 137.48
6.4004641 5.8690562 -1.84584 137.48
6.6997557 6.1434989 -1.7126569 137.48
6.9717894 6.3549705 -1.5498722 137.64999
6.9438038 6.3294611 -1.3204744 137.64999
7.0365205 6.4139748 -1.1134206 137.64999
11.867757 10.817775 -1.4981611 137.64999
2.8383298 2.5872128 -1.7099209 137.64999
11.958031 10.900062 -0.75455832 137.64999
3.0028868 2.7372108 -1.5866296 137.64999
34.270924 31.238855 0 137.64999
3.9793344 3.6272686 -1.9597754 137.64999
4.3213477 3.9390228 -1.975762 137.64999
33.067299 30.141718 2.0865648 137.64999
4.6167564 4.2082958 -1.9492923 137.64999
4.967216 4.5277491 -1.9272563 137.64999
5.3964505 4.9190073 -1.9115419 137.64999
5.8896942 5.3686123 -1.8882804 137.64999
6.4091749 5.8421326 -1.843345 137.64999
6.6816411 6.0904927 -1.7033993 137.64999
6.7185946 6.0877771 -1.4895633 137.82001
6.9053149 6.2569661 -1.3096188 137.82001
9.9642849 9.0287256 -1.5724481 137.82001
12.045077 10.91415 -1.1366119 137.82001
2.9015055 2.6290796 -1.7432733 137.82001
14.54709 13.181246 -0.91545749 137.82001
2.9047246 2.6319964 -1.6372766 137.82001
13.401785 12.143475 -0.41988328 137.82001
3.0123754 2.7295399 -1.587357 137.82001
34.476101 31.239096 0 137.82001
3.041652 2.7560675 -1.4939439 137.82001
4.3372283 3.9300005 -1.9776827 137.82001
4.6320519 4.1971431 -1.9504838 137.82001
4.9663815 4.500082 -1.9217436 137.82001
5.4009852 4.8938804 -1.9079964 137.82001
5.9128079 5.3576474 -1.8905859 137.82001
6.4279304 5.8244038 -1.8437608 137.82001
6.7477455 6.1141915 -1.7156193 137.82001
6.9576807 6.2647238 -1.5381994 138
6.9308248 6.2405429 -1.3107322 138
7.1124754 6.4041018 -1.1192281 138
3.3347399 3.0026133 -1.9978904 138
13.022095 11.725146 -0.81716645 138
2.9074929 2.6179185 -1.6341933 138
13.422037 12.085257 -0.41932622 138
34.941185 31.461184 0 138
3.0572786 2.7527862 -1.4973642 138
4.3495536 3.9163554 -1.9776827 138
4.6395397 4.1774602 -1.9481008 138
4.9776373 4.4818845 -1.9206411 138
5.4134574 4.874299 -1.9069834 138
5.9353952 5.344254 -1.8924304 138
6.4461966 5.8041816 -1.8437608 138
6.9071374 6.2192144 -1.7511685 138
6.8453598 6.1269107 -1.509342 138.17
6.9020863 6.1776834 -1.3018252 138.17
6.9819484 6.2491636 -1.0957657 138.17
3.3545256 3.002454 -2.0043981 138.17
14.554394 13.02685 -0.91089231 138.17
2.9111223 2.6055877 -1.6318808 138.17
31.9767 28.620611 -0.99634653 138.17
35.144657 31.456076 0 138.17
3.0570307 2.7361825 -1.4932599 138.17
4.3569188 3.899642 -1.975762 138.17
4.6362653 4.1496701 -1.9415476 138.17
4.9751554 4.452992 -1.9145771 138.17
5.4336629 4.8633771 -1.9090095 138.17
5.9526763 5.3279181 -1.8928915 138.17
6.4677625 5.7889438 -1.8450084 138.17
6.9255595 6.1986933 -1.7511685 138.17
6.7504029 6.0080523 -1.4846997 138.33
6.7891207 6.0425119 -1.2773308 138.33
6.9088569 6.1490808 -1.0815953 138.33
11.929855 10.617913 -1.4899867 138.33
13.079167 11.640834 -1.2243656 138.33
3.3083043 2.9444859 -1.9718592 138.33
13.04464 11.610104 -0.81437147 138.33
2.9349296 2.6121716 -1.6411309 138.33
11.882845 10.576074 -0.36933017 138.33
34.98436 31.137085 0 138.33
4.0192947 3.5772877 -1.9584073 138.33
4.3649611 3.8849404 -1.9744816 138.33
4.6563921 4.1443229 -1.9451221 138.33
4.9904432 4.441638 -1.9156796 138.33
64.745499 57.625351 8.0864286 138.33
5.4298792 4.8327484 -1.9029315 138.33
5.9515405 5.2970419 -1.8878192 138.33
6.4649057 5.7539515 -1.8396026 138.33
6.9487152 6.184556 -1.7526498 138.33
6.9407301 6.1384797 -1.5223117 138.50999
6.8629618 6.0697007 -1.2876295 138.50999
9.5187531 8.41852 -1.486032 138.50999
11.960171 10.577744 -1.4896151 138.50999
13.108201 11.593079 -1.2236681 138.50999
2.8672619 2.5358472 -1.7042265 138.50999
14.451859 12.781428 -0.89971232 138.50999
32.009682 28.309814 -0.99212217 138.50999
3.8125641 3.3718858 -1.9874699 138.50999
11.791882 10.428906 0 138.50999
4.033329 3.5671332 -1.9597754 138.50999
4.3785634 3.8724637 -1.9751219 138.50999
4.657948 4.119555 -1.9403561 138.50999
5.0043726 4.4259381 -1.9156796 138.50999
5.4522815 4.8220749 -1.9054639 138.50999
5.9768987 5.2860541 -1.8905859 138.50999
6.4800196 5.7310209 -1.838771 138.50999
6.9578047 6.1535811 -1.7500576 138.50999
6.8625698 6.0331607 -1.501236 138.67999
7.0728216 6.2180014 -1.3235362 138.67999
