# .PCD v0.7 - Point Cloud Data file format
VERSION 0.7
FIELDS x y z intensity
SIZE 4 4 4 4
TYPE F F F F
COUNT 1 1 1 1
WIDTH 1164
HEIGHT 1
VIEWPOINT 0 0 0 1 0 0 0
POINTS 1164
DATA ascii
-6.7345676 27.376991 -1.9714575 76.18
-1.0932864 4.4443669 -2.0377505 76.18
-1.1642435 4.7328176 -2.035804 76.18
-1.2447203 5.059968 -2.0347559 76.18
-1.3306384 5.4092374 -2.0274954 76.18
-1.4347578 5.8324976 -2.0295417 76.18
-1.5464914 6.2867107 -2.0201864 76.18
-1.6854029 6.8514061 -2.0231781 76.18
-1.8389769 7.4757066 -2.0153751 76.18
-2.0328922 8.2640009 -2.0164714 76.18
-2.2542794 9.1639709 -2.0059321 76.18
-2.5281746 10.277395 -1.9940881 76.18
-2.8542206 11.74411 -1.9856521 76.339996
-3.3128824 13.631341 -1.9715261 76.339996
-3.9790995 16.372589 -1.9703804 76.339996
-4.9172206 20.232626 -1.9425561 76.339996
-6.6439552 27.337528 -1.967272 76.339996
-1.0808711 4.4474025 -2.0377505 76.339996
-1.1488432 4.7270842 -2.0319498 76.339996
-1.2292655 5.0579929 -2.0325737 76.339996
-1.3155278 5.4129319 -2.0274954 76.339996
-1.4171225 5.8309584 -2.027621 76.339996
-1.5289296 6.2910051 -2.0201864 76.339996
-1.6653556 6.8523498 -2.0220757 76.339996
-1.8167229 7.475173 -2.0138555 76.339996
-2.0107262 8.273428 -2.0173936 76.339996
-2.227294 9.1645279 -2.0046844 76.339996
-2.4980724 10.278686 -1.9929771 76.339996
-2.8182316 11.756857 -1.9863006 76.519997
-3.2705038 13.643607 -1.9718045 76.519997
-3.927644 16.385008 -1.9703804 76.519997
-4.8559546 20.257656 -1.943485 76.519997
-6.5473428 27.313643 -1.9640633 76.519997
-1.0664679 4.4489994 -2.036937 76.519997
-1.1369983 4.7432323 -2.0373456 76.519997
-1.2142378 5.0654535 -2.0340285 76.519997
-1.2993922 5.4206934 -2.0288634 76.519997
-1.3987969 5.8353815 -2.027621 76.519997
-1.5096034 6.2976341 -2.0207822 76.519997
-1.6433719 6.8556781 -2.0215244 76.519997
-1.7945831 7.4864879 -2.0153751 76.519997
-1.9838172 8.275919 -2.0164714 76.519997
-2.1989477 9.1733818 -2.0051003 76.519997
-2.4648523 10.28266 -1.9922365 76.519997
-2.7842445 11.769008 -1.9869491 76.690002
-3.2313759 13.659033 -1.9726396 76.690002
-3.8776395 16.390791 -1.9696835 76.690002
-4.7894096 20.244844 -1.9408841 76.690002
-6.4639759 27.323242 -1.9633657 76.690002
-1.0536834 4.4539223 -2.0377505 76.690002
-1.1212205 4.7394013 -2.0342624 76.690002
-1.2013475 5.0780988 -2.0376658 76.690002
-1.2798417 5.4098935 -2.0233912 76.690002
-1.3823494 5.8431935 -2.0289016 76.690002
-1.4909112 6.3020854 -2.0207822 76.690002
-1.6225809 6.8586531 -2.0209732 76.690002
-1.7719169 7.4898968 -2.0148685 76.690002
-1.9592533 8.2817678 -2.0164714 76.690002
-2.1717203 9.1798658 -2.0051003 76.690002
-2.4347847 10.291841 -1.9926069 76.690002
-2.7494991 11.787307 -1.9885702 76.870003
-3.1888988 13.671046 -1.9729179 76.870003
-3.8247736 16.397089 -1.9689866 76.870003
-4.7162857 20.219067 -1.9369826 76.870003
-6.3586178 27.259867 -1.9573667 76.870003
-1.0421761 4.4678864 -2.0426314 76.870003
-1.1067449 4.7446976 -2.0350332 76.870003
-1.1811563 5.0637045 -2.0303912 76.870003
-1.2654012 5.4248691 -2.0274954 76.870003
-1.3626944 5.8419719 -2.0269809 76.870003
-1.470238 6.3030195 -2.0195909 76.870003
-1.6018993 6.8674612 -2.0220757 76.870003
-1.7483779 7.4954262 -2.0148685 76.870003
-1.9336679 8.2897778 -2.0169325 76.870003
-2.1442032 9.192359 -2.0063479 76.870003
-2.4042258 10.307096 -1.9940881 76.870003
-2.7096446 11.774257 -1.9850036 77.040001
-3.1474335 13.676587 -1.9723612 77.040001
-3.7792242 16.421915 -1.9706128 77.040001
-4.6500211 20.205803 -1.9343816 77.040001
-6.2687593 27.239727 -1.9545764 77.040001
-1.027276 4.4638367 -2.0393775 77.040001
-1.0922483 4.7461619 -2.0342624 77.040001
-1.1669624 5.0708179 -2.031846 77.040001
-1.2484568 5.4249368 -2.0261273 77.040001
-1.3449299 5.8441429 -2.0263405 77.040001
-1.4519583 6.3092146 -2.0201864 77.040001
-1.5815161 6.8721838 -2.0220757 77.040001
-1.7252631 7.49681 -2.0138555 77.040001
-1.9081903 8.2916851 -2.0160103 77.040001
-2.1156034 9.1929607 -2.0051003 77.040001
-2.3718705 10.306521 -1.9926069 77.040001
-2.6739511 11.788486 -1.9859763 77.220001
-3.1048899 13.688339 -1.9726396 77.220001
-3.7267358 16.429832 -1.9701481 77.220001
-4.5781503 20.183413 -1.9308518 77.220001
-6.177856 27.235937 -1.9529022 77.220001
-1.0136516 4.4688239 -2.0401909 77.220001
-1.0773325 4.7495699 -2.0342624 77.220001
-1.1526747 5.0817266 -2.0347559 77.220001
-1.2322392 5.432498 -2.0274954 77.220001
-1.3269826 5.8501873 -2.0269809 77.220001
-1.4325525 6.3156066 -2.0207822 77.220001
-1.5599188 6.8771186 -2.0220757 77.220001
-1.7017027 7.502193 -2.0138555 77.220001
-1.8821317 8.2976398 -2.0160103 77.220001
-2.0867124 9.1995621 -2.0051003 77.220001
-2.3403494 10.317756 -1.9933474 77.220001
-2.6397276 11.790129 -1.9850036 77.379997
-3.0675182 13.700822 -1.9731963 77.379997
-3.6804066 16.438236 -1.9699159 77.379997
-4.5182891 20.180573 -1.9293655 77.379997
-6.0882621 27.192728 -1.9485773 77.379997
-1.0019667 4.475203 -2.0418179 77.379997
-1.0648714 4.7561617 -2.035804 77.379997
-1.1368512 5.0776539 -2.031846 77.379997
-15.488323 69.177338 0 77.379997
-1.217064 5.4359179 -2.0274954 77.379997
-1.3102267 5.8520212 -2.0263405 77.379997
-1.4153275 6.3214455 -2.021378 77.379997
-1.5411282 6.8833241 -2.0226269 77.379997
-1.6811687 7.5088038 -2.0143621 77.379997
-1.8585279 8.3009634 -2.0155489 77.379997
-2.0614417 9.207262 -2.0055161 77.379997
-2.3106689 10.320415 -1.9926069 77.379997
-2.6047339 11.797909 -1.9850036 77.550003
-3.0259998 13.705995 -1.9726396 77.550003
-3.6264782 16.425808 -1.9671283 77.550003
-4.4669785 20.23278 -1.9330812 77.550003
-5.986907 27.117159 -1.9418807 77.550003
-0.98986584 4.4835086 -2.0442584 77.550003
-1.0503571 4.7574983 -2.0350332 77.550003
-1.1241903 5.0919194 -2.036211 77.550003
-15.285588 69.234703 0 77.550003
-1.2001196 5.4358344 -2.0261273 77.550003
-1.2961255 5.8706846 -2.0314624 77.550003
-1.3965652 6.3256173 -2.021378 77.550003
-1.5202837 6.8859887 -2.0220757 77.550003
-1.6588823 7.5137587 -2.0143621 77.550003
-1.8338902 8.3064413 -2.0155489 77.550003
-2.0336924 9.2114277 -2.0051003 77.550003
-2.2804613 10.329144 -1.9929771 77.550003
-2.5755587 11.822492 -1.9879217 77.709999
-2.9868705 13.710522 -1.9720829 77.709999
-3.5810173 16.437811 -1.9673605 77.709999
-4.4007115 20.200424 -1.9288081 77.709999
-5.904788 27.10453 -1.939788 77.709999
-0.97461927 4.4737587 -2.038564 77.709999
-1.0374603 4.7622161 -2.035804 77.709999
-1.1079838 5.0859375 -2.0325737 77.709999
-15.115178 69.382645 0 77.709999
-1.1861354 5.4446735 -2.0281794 77.709999
-1.2785164 5.8687267 -2.0295417 77.709999
-1.3776761 6.3238959 -2.0195909 77.709999
-1.4994116 6.8826938 -2.0198705 77.709999
-1.6378934 7.518362 -2.0143621 77.709999
-1.8098587 8.3077278 -2.0146267 77.709999
-2.0079615 9.2170715 -2.0051003 77.709999
-2.2520263 10.337393 -1.9933474 77.709999
-2.5388186 11.832455 -1.988246 77.889999
-2.943783 13.719837 -1.9720829 77.889999
-3.5293589 16.44898 -1.9673605 77.889999
-4.3242779 20.153791 -1.9230489 77.889999
-5.8108177 27.081982 -1.9368583 77.889999
-0.95979315 4.4732256 -2.036937 77.889999
-1.0217201 4.7618432 -2.0342624 77.889999
-1.0916097 5.0875716 -2.031846 77.889999
-14.909719 69.488457 0 77.889999
-1.1674476 5.4410229 -2.0254433 77.889999
-1.2580855 5.8634515 -2.0263405 77.889999
-1.3594044 6.33566 -2.0219738 77.889999
-1.4793949 6.8948894 -2.0220757 77.889999
-1.6150776 7.5272541 -2.0153751 77.889999
-1.7845669 8.3171778 -2.0155489 77.889999
-1.9785849 9.2214212 -2.0046844 77.889999
-2.2187147 10.340574 -1.9926069 77.889999
-2.5053575 11.837567 -1.9879217 78.050003
-2.9050484 13.726067 -1.9718045 78.050003
-3.4829996 16.456829 -1.9671283 78.050003
-4.2774644 20.210596 -1.9273219 78.050003
-5.7285585 27.066874 -1.934626 78.050003
-0.94956768 4.4866133 -2.0418179 78.050003
-1.0095649 4.7700939 -2.0365748 78.050003
-1.079327 5.0997133 -2.0354836 78.050003
-14.724724 69.572868 0 78.050003
-1.1518596 5.4424233 -2.0247593 78.050003
-1.2428838 5.8725033 -2.0282612 78.050003
-1.3417066 6.3394313 -2.0219738 78.050003
-1.460135 6.8989935 -2.0220757 78.050003
-1.5940512 7.5317349 -2.0153751 78.050003
-1.7593192 8.3126087 -2.0132434 78.050003
-1.9528261 9.2269106 -2.0046844 78.050003
-2.1890159 10.342884 -1.9918662 78.050003
-2.466089 11.84581 -1.9879217 78.239998
-2.8607261 13.741442 -1.9726396 78.239998
-3.4292173 16.472178 -1.9675928 78.239998
-4.2027087 20.18763 -1.923792 78.239998
-5.6391768 27.087673 -1.9347656 78.239998
-0.93319482 4.4825826 -2.038564 78.239998
-0.9937411 4.7734156 -2.0365748 78.239998
-1.0612707 5.0977926 -2.0333011 78.239998
-14.50616 69.680054 0 78.239998
-1.1341887 5.4480529 -2.0254433 78.239998
-1.2241753 5.8803024 -2.0295417 78.239998
-1.3198987 6.3401074 -2.0207822 78.239998
-12.998001 62.435642 4.4595313 78.239998
-1.4372491 6.9037976 -2.0220757 78.239998
-1.5686721 7.5350852 -2.0148685 78.239998
-1.7353137 8.3355446 -2.0173936 78.239998
-1.9222178 9.2333355 -2.0046844 78.239998
-2.1575096 10.363555 -1.9944583 78.239998
-2.4281554 11.839541 -1.9856521 78.410004
-2.8207378 13.753749 -1.9731963 78.410004
-3.3807275 16.484226 -1.9678252 78.410004
-4.1427927 20.20001 -1.923792 78.410004
-5.5487604 27.055426 -1.9312778 78.410004
-0.91989058 4.485332 -2.038564 78.410004
-0.9777199 4.7673039 -2.0327206 78.410004
-1.0472635 5.1063943 -2.0354836 78.410004
-14.312612 69.787437 0 78.410004
-1.1183965 5.4532351 -2.0261273 78.410004
-1.2048194 5.8746281 -2.0263405 78.410004
-11.945 58.243111 2.7726455 78.410004
-1.29878 6.3327742 -2.0172079 78.410004
-12.834339 62.579475 4.4670649 78.410004
-1.4156001 6.9023814 -2.0204217 78.410004
-1.5459194 7.5378108 -2.0143621 78.410004
-1.709401 8.334938 -2.0160103 78.410004
-1.8948135 9.2389984 -2.0046844 78.410004
-2.1247766 10.360284 -1.9926069 78.410004
-2.3941886 11.852498 -1.9866248 78.580002
-2.7791328 13.758176 -1.9726396 78.580002
-3.3353429 16.511709 -1.9699159 78.580002
-4.0792913 20.194645 -1.92212 78.580002
-5.4755716 27.10697 -1.933789 78.580002
-0.9065783 4.4880414 -2.038564 78.580002
-0.9646669 4.7756109 -2.0350332 78.580002
-1.0310012 5.1040006 -2.0333011 78.580002
-14.117365 69.888412 0 78.580002
-1.1007231 5.4491606 -2.0233912 78.580002
-1.1877589 5.880034 -2.0269809 78.580002
-1.2803626 6.3384709 -2.0178034 78.580002
-1.3966367 6.9140892 -2.0226269 78.580002
-1.5239305 7.544261 -2.0148685 78.580002
-1.6858193 8.3456955 -2.0173936 78.580002
-1.86778 9.2464972 -2.0051003 78.580002
-2.0944169 10.368469 -1.9929771 78.580002
-2.359396 11.861485 -1.9869491 78.75
-2.7379129 13.764419 -1.9723612 78.75
-3.2824616 16.502048 -1.9675928 78.75
-4.0216856 20.218378 -1.9232346 78.75
-5.3729334 27.01156 -1.9258367 78.75
-0.89468384 4.4978795 -2.0418179 78.75
-0.95121324 4.7820721 -2.0365748 78.75
-1.0173067 5.114346 -2.036211 78.75
-13.921255 69.986877 0 78.75
-1.0867503 5.4634624 -2.0274954 78.75
-1.1695681 5.8798156 -2.0257003 78.75
-1.2600605 6.3347521 -2.0154204 78.75
-11.053359 55.568989 3.9618888 78.75
-1.375366 6.9144316 -2.0215244 78.75
-10.711157 53.848621 5.1222472 78.75
-1.5011622 7.5468521 -2.0143621 78.75
-1.659531 8.3430262 -2.0155489 78.75
-1.8403368 9.2519979 -2.0051003 78.75
-2.0624936 10.368855 -1.9918662 78.75
-2.3230541 11.862622 -1.9859763 78.919998
-2.6970611 13.772481 -1.9723612 78.919998
-3.2319577 16.503918 -1.9666636 78.919998
-3.9601481 20.222404 -1.9224914 78.919998
-5.2916145 27.021509 -1.9254181 78.919998
-0.88063222 4.4969282 -2.0401909 78.919998
-0.93595642 4.7794399 -2.0342624 78.919998
-1.0003375 5.1082006 -2.0325737 78.919998
-13.726223 70.092644 0 78.919998
-1.0708963 5.4685073 -2.0281794 78.919998
-10.937443 55.851799 1.3213441 78.919998
-1.154302 5.8944168 -2.0295417 78.919998
-1.2434609 6.3497047 -2.018995 78.919998
-10.699023 54.634315 3.8929694 78.919998
-1.3552139 6.9203687 -2.0220757 78.919998
-1.4783918 7.5493741 -2.0138555 78.919998
-1.6343955 8.3460035 -2.0150878 78.919998
-1.8125015 9.2554979 -2.0046844 78.919998
-2.0324748 10.378786 -1.9926069 78.919998
-2.2874732 11.867525 -1.9856521 79.089996
-2.6580598 13.790147 -1.973753 79.089996
-3.1841033 16.519287 -1.9673605 79.089996
-3.9016371 20.241888 -1.9232346 79.089996
-5.2008438 26.982237 -1.9215118 79.089996
-0.86797732 4.5031095 -2.0418179 79.089996
-0.92212069 4.784008 -2.0350332 79.089996
-0.98623461 5.1166344 -2.0347559 79.089996
-13.527657 70.182159 0 79.089996
-1.0543104 5.4698148 -2.0274954 79.089996
-1.1353734 5.8903737 -2.0269809 79.089996
-11.927503 61.880478 2.9388552 79.089996
-1.22317 6.3458672 -2.0166121 79.089996
-10.525544 54.607048 3.8887839 79.089996
-1.3343109 6.9224715 -2.0215244 79.089996
-1.4563521 7.5556269 -2.0143621 79.089996
-1.6110986 8.3584595 -2.0169325 79.089996
-1.785032 9.2608347 -2.0046844 79.089996
-2.0009274 10.380912 -1.9918662 79.089996
-2.2512815 11.88047 -1.9866248 79.269997
-2.6121426 13.784807 -1.9718045 79.269997
-3.1333003 16.535063 -1.9680574 79.269997
-3.8369141 20.248175 -1.9226773 79.269997
-5.1119652 26.976881 -1.9199772 79.269997
-0.85246545 4.4986334 -2.038564 79.269997
-0.90743035 4.7886944 -2.035804 79.269997
-0.96980852 5.117877 -2.0340285 79.269997
-13.322001 70.30291 0 79.269997
-1.0364215 5.4694071 -2.0261273 79.269997
-10.62063 56.047226 1.3244079 79.269997
-1.1175681 5.8976345 -2.0282612 79.269997
-1.2042943 6.3553061 -2.0183992 79.269997
-10.349483 54.616322 3.8871098 79.269997
-1.3129147 6.9285178 -2.0220757 79.269997
-10.996509 58.030811 5.5103498 79.269997
-1.432248 7.5582643 -2.0138555 79.269997
-10.362229 54.683594 6.5086207 79.269997
-1.5844696 8.3615675 -2.0164714 79.269997
-1.7559295 9.2663975 -2.0046844 79.269997
-1.968671 10.389077 -1.9922365 79.269997
-2.2160215 11.887097 -1.9866248 79.440002
-2.5723197 13.798338 -1.9726396 79.440002
-3.0838621 16.542334 -1.9678252 79.440002
-3.7764547 20.257513 -1.9224914 79.440002
-5.0319009 26.99193 -1.9199772 79.440002
-0.83978367 4.5047355 -2.0401909 79.440002
-0.89287984 4.7895517 -2.0350332 79.440002
-0.95564353 5.1262259 -2.036211 79.440002
-13.124713 70.403076 0 79.440002
-1.0215666 5.4798484 -2.0288634 79.440002
-10.475175 56.190533 1.3270539 79.440002
-1.0983285 5.8916111 -2.0250602 79.440002
-10.60795 56.90276 2.6993232 79.440002
-1.1857824 6.3607283 -2.018995 79.440002
-10.130348 54.34082 3.8653457 79.440002
-1.292704 6.9342728 -2.0226269 79.440002
-10.314086 55.326424 5.2506237 79.440002
-1.4098159 7.5624804 -2.0138555 79.440002
-10.246533 54.964058 6.5383549 79.440002
-1.5596533 8.3662319 -2.0164714 79.440002
-10.147723 54.434025 7.7820029 79.440002
-1.7284279 9.2715664 -2.0046844 79.440002
-1.9385577 10.398737 -1.9929771 79.440002
-2.1783106 11.892059 -1.9863006 79.620003
-2.5293152 13.808299 -1.9729179 79.620003
-3.0311618 16.548033 -1.9673605 79.620003
-3.7081311 20.243813 -1.9200763 79.620003
-4.9355755 26.944805 -1.9155128 79.620003
-0.82562751 4.5073514 -2.0401909 79.620003
-0.87716365 4.7887025 -2.0334914 79.620003
-0.93752027 5.1182079 -2.031846 79.620003
-12.917885 70.522652 0 79.620003
-1.0036689 5.4793334 -2.0274954 79.620003
-10.288149 56.166126 1.3257078 79.620003
-1.0815209 5.9043512 -2.0282612 79.620003
-11.322555 61.813263 2.9305634 79.620003
-1.1675137 6.3738117 -2.0219738 79.620003
-9.9401693 54.266407 3.8578119 79.620003
-1.2695274 6.9307356 -2.0204217 79.620003
-10.052677 54.880615 5.2052927 79.620003
-1.3870966 7.5725813 -2.0153751 79.620003
-1.5340636 8.3749189 -2.0173936 79.620003
-9.771121 53.343517 7.6216755 79.620003
-1.6982344 9.2711773 -2.003437 79.620003
-1.9051714 10.400909 -1.9922365 79.620003
-2.1447432 11.896153 -1.9859763 79.779999
-2.489691 13.809462 -1.9720829 79.779999
-2.9842343 16.552523 -1.9668959 79.779999
-3.6533518 20.263887 -1.9210052 79.779999
-4.8542943 26.925104 -1.913141 79.779999
-0.81271321 4.5078411 -2.0393775 79.779999
-0.8650974 4.798398 -2.0365748 79.779999
-0.92421556 5.1263065 -2.0340285 79.779999
-12.72764 70.595848 0 79.779999
-0.98803037 5.4802651 -2.0268114 79.779999
-10.133038 56.204479 1.3259399 79.779999
-1.0643563 5.9036193 -2.0269809 79.779999
-1.1497102 6.3770475 -2.0219738 79.779999
-9.850893 54.639523 3.8823664 79.779999
-1.2518737 6.9437137 -2.0231781 79.779999
-9.8930225 54.873199 5.2019482 79.779999
-1.365258 7.5726171 -2.0143621 79.779999
-1.5092893 8.3715096 -2.0155489 79.779999
-9.8958635 54.888954 7.8385072 79.779999
-1.6723379 9.2758837 -2.003437 79.779999
-9.7968369 54.339687 9.0716152 79.779999
-1.8754218 10.402321 -1.991496 79.779999
-2.1070156 11.900889 -1.9856521 79.959999
-2.4480217 13.826966 -1.9734746 79.959999
-2.9342964 16.573553 -1.9682897 79.959999
-3.5882843 20.267422 -1.9202621 79.959999
-4.7602916 26.887177 -1.9093742 79.959999
-0.79822892 4.5085731 -2.038564 79.959999
-0.84969682 4.7992749 -2.035804 79.959999
-0.9074567 5.1255155 -2.0325737 79.959999
-12.518695 70.708351 0 79.959999
-0.97048116 5.4814916 -2.0261273 79.959999
-9.5255747 53.802544 1.2685628 79.959999
-1.0454741 5.9050679 -2.0263405 79.959999
-9.8215084 55.474049 2.627212 79.959999
-1.1286719 6.3749881 -2.0201864 79.959999
-1.2290478 6.9419332 -2.0215244 79.959999
-9.702879 54.804005 5.1924734 79.959999
-1.3421358 7.5806794 -2.0153751 79.959999
-9.5772409 54.094372 6.4242949 79.959999
-1.4823035 8.3723774 -2.0146267 79.959999
-9.5852642 54.13969 7.727169 79.959999
-1.6438707 9.2849445 -2.0042686 79.959999
-9.5995827 54.220562 9.046649 79.959999
-1.8423901 10.406226 -1.9911256 79.959999
-2.0737739 11.906727 -1.9856521 80.120003
-2.40906 13.831797 -1.9731963 80.120003
-2.8876619 16.579725 -1.9680574 80.120003
-3.5320148 20.279325 -1.9204478 80.120003
-4.6756043 26.845331 -1.9054679 80.120003
-0.78438151 4.5035844 -2.0353103 80.120003
-0.83565807 4.7979932 -2.0342624 80.120003
-0.89282036 5.1261945 -2.031846 80.120003
-12.335261 70.823822 0 80.120003
-0.95581514 5.4878836 -2.0274954 80.120003
-9.3629417 53.758022 1.2668916 80.120003
-1.029305 5.909831 -2.0269809 80.120003
-9.6706715 55.524879 2.62833 80.120003
-1.111848 6.3837576 -2.0219738 80.120003
-9.5018368 54.5555 3.8723214 80.120003
-1.2089977 6.9415503 -2.0204217 80.120003
-1.3206294 7.5824914 -2.0148685 80.120003
-9.2870779 53.322449 6.3295159 80.120003
-1.4592515 8.3784008 -2.0150878 80.120003
-9.4279242 54.131126 7.7221589 80.120003
-1.6186073 9.2933531 -2.0051003 80.120003
-9.454567 54.2841 9.0528097 80.120003
-1.8136605 10.413266 -1.991496 80.120003
-2.0366902 11.915129 -1.9859763 80.300003
-2.3655944 13.839297 -1.9731963 80.300003
-2.835561 16.588715 -1.9680574 80.300003
-3.4699657 20.300135 -1.9213768 80.300003
-4.583849 26.816622 -1.9023986 80.300003
-0.77146059 4.5132303 -2.038564 80.300003
-0.82089162 4.8024135 -2.0350332 80.300003
-0.87671161 5.128974 -2.031846 80.300003
-12.125506 70.937134 0 80.300003
-0.93730313 5.483449 -2.0247593 80.300003
-1.0120107 5.9205065 -2.0295417 80.300003
-9.4675751 55.387596 2.6204109 80.300003
-1.0914657 6.3853369 -2.021378 80.300003
-9.369729 54.815174 3.8886445 80.300003
-1.1878321 6.9491043 -2.0215244 80.300003
-9.2620773 54.185383 5.1285639 80.300003
-1.2974538 7.5904174 -2.0158815 80.300003
-9.1362495 53.449265 6.3411312 80.300003
-1.4332508 8.3848629 -2.0155489 80.300003
-9.3065395 54.445499 7.7627974 80.300003
-1.5890738 9.296464 -2.0046844 80.300003
-9.2879725 54.336876 9.0567007 80.300003
-1.782262 10.426662 -1.9929771 80.300003
-2.0013285 11.921119 -1.9859763 80.470001
-2.3248498 13.848208 -1.9734746 80.470001
-2.786 16.595097 -1.9678252 80.470001
-3.4077406 20.298559 -1.9202621 80.470001
-4.4890676 26.739595 -1.895981 80.470001
-0.75776368 4.5136976 -2.0377505 80.470001
-0.80633342 4.8030081 -2.0342624 80.470001
-0.86179823 5.1333899 -2.0325737 80.470001
-11.925906 71.037888 0 80.470001
-0.92196274 5.4917665 -2.0268114 80.470001
-0.99318492 5.9160085 -2.0269809 80.470001
-9.332634 55.590797 2.6287029 80.470001
-1.0725152 6.3885474 -2.021378 80.470001
-9.1066303 54.244583 3.8462324 80.470001
-1.166572 6.9488063 -2.0204217 80.470001
-8.9321318 53.205162 5.0332565 80.470001
-1.2746066 7.5923252 -2.0153751 80.470001
-8.9605207 53.374268 6.3290515 80.470001
-1.4086883 8.3909969 -2.0160103 80.470001
-9.0777359 54.072468 7.7057362 80.470001
-1.5611597 9.2992086 -2.0042686 80.470001
-9.0878286 54.132587 9.018116 80.470001
-1.7509923 10.429966 -1.9926069 80.470001
-1.9659489 11.927005 -1.9859763 80.639999
-2.2834291 13.853091 -1.9731963 80.639999
-2.7380414 16.61113 -1.9687543 80.639999
-3.3484702 20.314474 -1.9208194 80.639999
-4.4119816 26.766577 -1.8969575 80.639999
-0.74436796 4.5159264 -2.0377505 80.639999
-0.79207909 4.8053794 -2.0342624 80.639999
-0.84747237 5.141439 -2.0347559 80.639999
-11.725814 71.138084 0 80.639999
-0.90627563 5.4981861 -2.0281794 80.639999
-0.97655189 5.9245377 -2.0289016 80.639999
-1.0535553 6.3917017 -2.021378 80.639999
-8.9021635 54.007576 3.8275378 80.639999
-1.1472 6.9598246 -2.0226269 80.639999
-8.7761726 53.243217 5.0343714 80.639999
-1.2517594 7.5941648 -2.0148685 80.639999
-1.3828361 8.3893795 -2.0146267 80.639999
-8.7942142 53.352673 7.5994081 80.639999
-1.5338798 9.3057299 -2.0046844 80.639999
-8.8783865 53.863327 8.9688311 80.639999
-1.719399 10.431237 -1.9918662 80.639999
-1.9287844 11.93507 -1.9863006 80.82
-2.2392652 13.856286 -1.9726396 80.82
-2.6858428 16.61965 -1.9687543 80.82
-3.2849517 20.32686 -1.9210052 80.82
-4.3275518 26.778336 -1.896818 80.82
-0.7307601 4.5218496 -2.0393775 80.82
-0.77786189 4.8133097 -2.0365748 80.82
-0.830127 5.1367192 -2.031846 80.82
-11.509928 71.221954 0 80.82
-0.88899815 5.5010061 -2.0281794 80.82
-8.5817137 53.102543 1.24888 80.82
-0.9588415 5.933188 -2.0308223 80.82
-1.0328609 6.3912101 -2.0201864 80.82
-8.7111235 53.903316 3.8181903 80.82
-1.124716 6.9595985 -2.0215244 80.82
-8.6390419 53.457283 5.0520205 80.82
-1.2269695 7.59233 -2.0133491 80.82
-1.3564732 8.3936825 -2.0146267 80.82
-8.6448851 53.493435 7.6155519 80.82
-1.5046375 9.310503 -2.0046844 80.82
-8.7299061 54.019539 8.9902315 80.82
-1.6863062 10.434647 -1.991496 80.82
-1.8930548 11.938791 -1.9859763 80.989998
-2.1987634 13.866781 -1.9731963 80.989998
-2.6358972 16.623621 -1.9682897 80.989998
-3.2233789 20.32865 -1.9202621 80.989998
-4.2305827 26.68071 -1.8890053 80.989998
-0.71734029 4.5239983 -2.0393775 80.989998
-0.76299912 4.8119512 -2.0350332 80.989998
-0.81575769 5.14468 -2.0340285 80.989998
-11.315784 71.364433 0 80.989998
-0.87267244 5.5036197 -2.0281794 80.989998
-8.3733912 52.807858 1.2413597 80.989998
-0.93915606 5.9229074 -2.0263405 80.989998
-8.5736771 54.070988 2.5530512 80.989998
-1.0141922 6.3961325 -2.0207822 80.989998
-8.4561663 53.329891 3.7757783 80.989998
-1.1031584 6.9572086 -2.0198705 80.989998
-8.4750919 53.449245 5.0488625 80.989998
-1.2050432 7.5997586 -2.0143621 80.989998
-8.5504112 53.924259 6.3848038 80.989998
-1.3315628 8.3976698 -2.0146267 80.989998
-8.4662781 53.393661 7.5977378 80.989998
-1.4766997 9.312994 -2.0042686 80.989998
-8.5875149 54.158257 9.009037 80.989998
-1.6559542 10.443486 -1.9922365 80.989998
-1.8594044 11.942081 -1.9856521 81.150002
-2.1594222 13.868954 -1.9726396 81.150002
-2.5903819 16.636806 -1.9689866 81.150002
-3.165679 20.331669 -1.9197047 81.150002
-4.1585155 26.708189 -1.8901215 81.150002
-0.70442307 4.524178 -2.038564 81.150002
-0.74984258 4.8158865 -2.035804 81.150002
-0.80138791 5.1469378 -2.0340285 81.150002
-11.122607 71.43528 0 81.150002
-0.85758919 5.5078921 -2.0288634 81.150002
-8.2172775 52.775715 1.2400599 81.150002
-0.92319554 5.9292512 -2.027621 81.150002
-8.4432421 54.226978 2.5592935 81.150002
-0.99544573 6.39328 -2.018995 81.150002
-8.2872572 53.225155 3.76671 81.150002
-1.0840216 6.9621615 -2.0204217 81.150002
-1.1841137 7.6050057 -2.0148685 81.150002
-1.3096039 8.4109707 -2.0169325 81.150002
-8.3217125 53.446449 7.601913 81.150002
-1.4503862 9.3151484 -2.0038528 81.150002
-8.4574966 54.318531 9.0317335 81.150002
-1.6261793 10.444186 -1.991496 81.150002
-1.8194957 11.946231 -1.9853278 81.339996
-2.1137173 13.877995 -1.9729179 81.339996
-2.5343008 16.639414 -1.9682897 81.339996
-3.0976398 20.338118 -1.9193332 81.339996
-4.0702252 26.723806 -1.8902609 81.339996
-0.68886626 4.5228767 -2.036937 81.339996
-0.73303479 4.8128734 -2.0334914 81.339996
-0.78347409 5.1440415 -2.031846 81.339996
-10.89951 71.562721 0 81.339996
-0.8387537 5.50699 -2.0274954 81.339996
-8.0000734 52.52594 1.2335609 81.339996
-0.90324306 5.930407 -2.0269809 81.339996
-0.9748143 6.400321 -2.0201864 81.339996
-8.1010971 53.189228 3.7622457 81.339996
-1.0609283 6.9657178 -2.0204217 81.339996
-1.1603447 7.6184545 -2.017401 81.339996
-1.2817049 8.415267 -2.0169325 81.339996
-8.1632195 53.597103 7.6194491 81.339996
-1.4197826 9.3218412 -2.0042686 81.339996
-8.2621689 54.246773 9.0151978 81.339996
-1.5918322 10.451464 -1.9918662 81.339996
-1.7858368 11.949313 -1.9850036 81.5
-2.0749545 13.883844 -1.9729179 81.5
-2.4881186 16.64839 -1.9685221 81.5
-3.0367122 20.319117 -1.9167322 81.5
-3.9941082 26.725201 -1.8895633 81.5
-0.6770435 4.5302038 -2.0393775 81.5
-0.72041017 4.8203769 -2.035804 81.5
-0.77020764 5.1535797 -2.0347559 81.5
-10.711452 71.672005 0 81.5
-0.82281643 5.5055933 -2.0261273 81.5
-7.8557272 52.563896 1.2339323 81.5
-0.88723886 5.9366541 -2.0282612 81.5
-8.1404772 54.469204 2.5683308 81.5
-0.95665526 6.4011297 -2.0195909 81.5
-7.9313006 53.069572 3.7522008 81.5
-1.0423248 6.9743576 -2.0220757 81.5
-8.08848 54.121284 5.105341 81.5
-1.1384935 7.6178379 -2.0163879 81.5
-8.1432009 54.487427 6.442647 81.5
-1.2570494 8.4111147 -2.0150878 81.5
-8.0170288 53.643196 7.6227889 81.5
-1.3940347 9.3277044 -2.0046844 81.5
-8.2591305 55.263134 9.1802359 81.5
-1.5623496 10.453925 -1.991496 81.5
-1.7498028 11.950654 -1.9843551 81.669998
-2.0334642 13.88798 -1.9726396 81.669998
-2.4381354 16.651768 -1.9680574 81.669998
-2.9764109 20.328037 -1.9167322 81.669998
-3.9104598 26.707323 -1.8874707 81.669998
-0.66333449 4.530385 -2.038564 81.669998
-0.70637202 4.8243194 -2.0365748 81.669998
-0.75464338 5.1539989 -2.0340285 81.669998
-10.508312 71.768768 0 81.669998
-0.80702198 5.5117297 -2.0274954 81.669998
-7.713057 52.677979 1.2360677 81.669998
-0.86934608 5.9373856 -2.027621 81.669998
-7.971303 54.441723 2.5659084 81.669998
-0.93765855 6.4039402 -2.0195909 81.669998
-1.0210698 6.9736152 -2.0209732 81.669998
-7.9206514 54.095787 5.1006961 81.669998
-1.115886 7.6211824 -2.0163879 81.669998
-1.2326516 8.4186583 -2.0160103 81.669998
-1.3663528 9.3317995 -2.0046844 81.669998
-8.0262194 54.816788 9.1020947 81.669998
-1.5324643 10.466293 -1.9929771 81.669998
-1.714617 11.957747 -1.9846793 81.839996
-1.9922489 13.893952 -1.9726396 81.839996
-2.387872 16.65303 -1.9673605 81.839996
-2.911561 20.305239 -1.9137596 81.839996
-3.8278022 26.695108 -1.8857965 81.839996
-0.65066767 4.5377588 -2.0410044 81.839996
-0.69231683 4.8282208 -2.0373456 81.839996
-0.74014115 5.1617479 -2.036211 81.839996
-10.308666 71.892685 0 81.839996
-0.78959775 5.5066581 -2.0247593 81.839996
-7.565239 52.76001 1.2374603 81.839996
-0.85145676 5.9380631 -2.0269809 81.839996
-7.827034 54.58577 2.5715914 81.839996
-0.92082149 6.421813 -2.0243568 81.839996
-7.6312504 53.220375 3.7595949 81.839996
-1.0009199 6.9804201 -2.0220757 81.839996
-7.7318468 53.921932 5.0821176 81.839996
-1.0935432 7.6263752 -2.0168946 81.839996
-7.7847619 54.290962 6.4138417 81.839996
-1.2084962 8.4280577 -2.0173936 81.839996
-7.7424183 53.995659 7.6662111 81.839996
-1.3389366 9.3377495 -2.0051003 81.839996
-7.8534555 54.770035 9.0904217 81.839996
-1.5002875 10.463012 -1.991496 81.839996
-1.6786861 11.974801 -1.9866248 82.019997
-1.94859 13.900143 -1.9726396 82.019997
-2.3344402 16.65258 -1.9664314 82.019997
-2.8483088 20.31823 -1.9141312 82.019997
-3.7425334 26.697124 -1.8850989 82.019997
-0.63615501 4.5379715 -2.0401909 82.019997
-0.67586416 4.8212337 -2.0334914 82.019997
-0.72314554 5.1585126 -2.0340285 82.019997
-10.089144 71.970268 0 82.019997
-0.77333784 5.5165563 -2.0274954 82.019997
-7.3914013 52.726093 1.236114 82.019997
-0.83253455 5.9388323 -2.0263405 82.019997
-0.89958209 6.4171114 -2.0219738 82.019997
-0.97871852 6.981626 -2.0215244 82.019997
-1.0693103 7.6278567 -2.0163879 82.019997
-7.6353984 54.466625 6.4317288 82.019997
-1.180932 8.4241037 -2.0155489 82.019997
-7.5548763 53.892227 7.6481185 82.019997
-1.309323 9.3399725 -2.0046844 82.019997
-1.4685011 10.475459 -1.9929771 82.019997
-1.6399866 11.972194 -1.9853278 82.199997
-1.9043742 13.902271 -1.9720829 82.199997
-2.2818434 16.657864 -1.966199 82.199997
-2.7844634 20.327078 -1.9141312 82.199997
-3.6621635 26.734446 -1.8869126 82.199997
-0.62139952 4.5363269 -2.038564 82.199997
-0.66121542 4.8269901 -2.0350332 82.199997
-0.70643038 5.1570673 -2.0325737 82.199997
-9.8787365 72.116539 0 82.199997
-0.75651342 5.5226827 -2.0288634 82.199997
-7.2417316 52.865929 1.238853 82.199997
-0.81413025 5.943296 -2.0269809 82.199997
-7.7181711 56.344021 2.6520877 82.199997
-0.87915862 6.418014 -2.021378 82.199997
-0.95651937 6.9827619 -2.0209732 82.199997
-7.3837061 53.902367 5.0758009 82.199997
-1.045604 7.6330953 -2.0168946 82.199997
-1.1552535 8.4335566 -2.0169325 82.199997
-7.3946705 53.98241 7.6575823 82.199997
-1.2799742 9.344039 -2.0046844 82.199997
-7.5640798 55.219131 9.1568909 82.199997
-1.4345173 10.472232 -1.991496 82.199997
-1.6055053 11.984832 -1.9866248 82.370003
-1.863906 13.91375 -1.9729179 82.370003
-2.2324088 16.66456 -1.966199 82.370003
-2.7244039 20.337223 -1.914317 82.370003
-3.5775268 26.705645 -1.8841224 82.370003
-0.60769463 4.5363398 -2.0377505 82.370003
-0.64762563 4.8344183 -2.0373456 82.370003
-0.69137329 5.1609874 -2.0333011 82.370003
-7.5522633 56.376392 0 82.370003
-0.74012399 5.5249028 -2.0288634 82.370003
-0.79649258 5.9456854 -2.0269809 82.370003
-0.86036563 6.4224868 -2.0219738 82.370003
-7.1433978 53.324284 3.7621062 82.370003
-0.93630749 6.9893799 -2.0220757 82.370003
-7.2512403 54.129307 5.0951228 82.370003
-1.0224378 7.632329 -2.0158815 82.370003
-7.3033314 54.518158 6.4324255 82.370003
-1.1297089 8.4330893 -2.0160103 82.370003
-7.2410436 54.053188 7.6645412 82.370003
-1.2527637 9.3516741 -2.0055161 82.370003
-1.4037002 10.47839 -1.9918662 82.370003
-1.568145 11.975844 -1.9843551 82.540001
-1.8215864 13.911364 -1.9718045 82.540001
-2.18347 16.675051 -1.9666636 82.540001
-2.6632745 20.339294 -1.9137596 82.540001
-3.5026774 26.749773 -1.886494 82.540001
-0.59470683 4.5417461 -2.0393775 82.540001
-0.6323204 4.828999 -2.0342624 82.540001
-7.3860836 56.40715 -1.3207871 82.540001
-0.67557359 5.1593213 -2.031846 82.540001
-7.374052 56.315266 0 82.540001
-0.722996 5.5214844 -2.0268114 82.540001
-0.77884787 5.9480224 -2.0269809 82.540001
-0.84155381 6.4269042 -2.0225694 82.540001
-7.1195898 54.371948 3.8345134 82.540001
-0.91556549 6.9921274 -2.0220757 82.540001
-0.99978775 7.6353288 -2.0158815 82.540001
-7.1436043 54.555344 6.4342842 82.540001
-1.1044297 8.4344749 -2.0155489 82.540001
-7.2896881 55.670982 7.8908367 82.540001
-1.2227254 9.3378925 -2.0017738 82.540001
-7.3008423 55.756168 9.2385998 82.540001
-1.3723489 10.48056 -1.991496 82.540001
-1.5341946 11.976262 -1.9837066 82.699997
-1.7829831 13.918361 -1.9720829 82.699997
-2.1363912 16.677143 -1.966199 82.699997
-2.6052012 20.336777 -1.9128307 82.699997
-3.4264436 26.747576 -1.885657 82.699997
-0.58202159 4.5433893 -2.0393775 82.699997
-0.61883283 4.8307462 -2.0342624 82.699997
-7.2209148 56.368057 -1.3193944 82.699997
-0.66140014 5.1630359 -2.0325737 82.699997
-9.2764788 72.414246 0 82.699997
-0.70781314 5.5253458 -2.0274954 82.699997
-6.9643135 54.364971 1.2725086 82.699997
-0.76199412 5.9482946 -2.0263405 82.699997
-7.0066061 54.695114 2.5714984 82.699997
-0.82384586 6.4311233 -2.0231652 82.699997
-6.9438972 54.205597 3.8213992 82.699997
-0.89579195 6.9927502 -2.0215244 82.699997
-7.0468969 55.009636 5.1740808 82.699997
-0.9779703 7.6342525 -2.0148685 82.699997
-6.9632115 54.356373 6.4084988 82.699997
-1.0801301 8.431735 -2.0141656 82.699997
-1.1973901 9.3470917 -2.0030212 82.699997
-7.1290646 55.651054 9.2178478 82.699997
-1.3440753 10.492149 -1.9929771 82.699997
-1.4991435 11.984678 -1.9843551 82.870003
-1.7414329 13.921624 -1.9718045 82.870003
-2.0868998 16.683407 -1.966199 82.870003
-2.5450964 20.346392 -1.9130166 82.870003
-3.3453333 26.743767 -1.8846804 82.870003
-0.56899208 4.5487223 -2.0410044 82.870003
-0.60472608 4.8343921 -2.0350332 82.870003
-7.8490372 62.747952 -1.4681756 82.870003
-0.6465407 5.1686726 -2.0340285 82.870003
-9.0710144 72.516861 0 82.870003
-0.69001639 5.5162325 -2.0233912 82.870003
-6.8436794 54.71077 1.2801217 82.870003
-0.74434185 5.9505291 -2.0263405 82.870003
-6.8470192 54.737469 2.5725231 82.870003
-0.80452377 6.4316449 -2.0225694 82.870003
-6.6564927 53.214333 3.750108 82.870003
-0.87480146 6.9934692 -2.0209732 82.870003
-6.8843908 55.036232 5.1746383 82.870003
-0.95531476 7.6371207 -2.0148685 82.870003
-6.7427278 53.903728 6.3527465 82.870003
-1.0560741 8.442627 -2.0160103 82.870003
-6.8111067 54.450375 7.7121382 82.870003
-1.1706227 9.3583679 -2.0046844 82.870003
-6.9519105 55.576008 9.2019606 82.870003
-1.3126947 10.494141 -1.9926069 82.870003
-1.4613003 12.005256 -1.9869491 83.059998
-1.6954968 13.929289 -1.9720829 83.059998
-2.0313241 16.688265 -1.9659667 83.059998
-2.4768896 20.348791 -1.9124591 83.059998
-3.2566295 26.754713 -1.8846804 83.059998
-0.55346334 4.5469565 -2.0393775 83.059998
-0.58891433 4.838203 -2.035804 83.059998
-0.62894696 5.1670895 -2.0325737 83.059998
-8.8423309 72.643829 0 83.059998
-0.67217427 5.5222216 -2.0247593 83.059998
-6.6353974 54.512852 1.274969 83.059998
-0.72529191 5.9586077 -2.0282612 83.059998
-6.6715007 54.809456 2.5748522 83.059998
-0.7815764 6.4210105 -2.0183992 83.059998
-6.4848127 53.275726 3.7528982 83.059998
-0.85160547 6.9963317 -2.0209732 83.059998
-6.7718654 55.633995 5.2287011 83.059998
-0.93091905 7.6479292 -2.0168946 83.059998
-6.5584192 53.880436 6.3474035 83.059998
-1.0276014 8.4422188 -2.0150878 83.059998
-6.6367273 54.523777 7.7193751 83.059998
-1.1402919 9.3680239 -2.0059321 83.059998
-1.2778876 10.498436 -1.9926069 83.059998
-1.4266047 11.999491 -1.9853278 83.220001
-1.6561247 13.930036 -1.9715261 83.220001
-1.9844793 16.6919 -1.9657344 83.220001
-2.4209957 20.363537 -1.9132023 83.220001
-3.1795483 26.743891 -1.8832853 83.220001
-0.54119509 4.5521131 -2.0410044 83.220001
-4.5105557 37.939293 -1.7817229 83.220001
-0.57474762 4.8343306 -2.0334914 83.220001
-0.61473525 5.1706758 -2.0333011 83.220001
-8.6462841 72.72583 0 83.220001
-0.65630698 5.5203447 -2.0233912 83.220001
-6.5100532 54.757511 1.280261 83.220001
-0.70842582 5.9587283 -2.027621 83.220001
-6.5537968 55.12545 2.5888274 83.220001
-0.76319176 6.4193764 -2.0172079 83.220001
-6.3758197 53.628445 3.7764759 83.220001
-0.8325187 7.002501 -2.0220757 83.220001
-6.6056652 55.561729 5.2201552 83.220001
-0.90955842 7.6504989 -2.0168946 83.220001
-6.4168429 53.973499 6.3562307 83.220001
-1.0047115 8.4508533 -2.0164714 83.220001
-6.5015111 54.685665 7.7396946 83.220001
-1.114589 9.3750572 -2.0067637 83.220001
-1.2490296 10.505867 -1.9933474 83.220001
-1.3886734 12.001953 -1.9850036 83.400002
-1.6121265 13.933203 -1.9712478 83.400002
-1.933857 16.713839 -1.9675928 83.400002
-2.3590701 20.388845 -1.9148743 83.400002
-3.09024 26.708164 -1.8800765 83.400002
-0.52689159 4.5537906 -2.0410044 83.400002
-0.56019366 4.8416123 -2.035804 83.400002
-0.59913045 5.1781335 -2.0354836 83.400002
-8.4283409 72.844025 0 83.400002
-0.64068919 5.5373149 -2.0288634 83.400002
-0.68904912 5.9552779 -2.0257003 83.400002
-0.74302095 6.4217424 -2.0172079 83.400002
-6.1222343 52.912926 3.7247167 83.400002
-0.81029463 7.0031719 -2.0215244 83.400002
-6.4667859 55.890797 5.2491374 83.400002
-0.88485205 7.647553 -2.0153751 83.400002
-0.97748637 8.4481678 -2.0150878 83.400002
-6.3192081 54.615318 7.7268906 83.400002
-1.0833321 9.3629656 -2.003437 83.400002
-1.2142111 10.494121 -1.9903851 83.400002
-1.3530568 12.006021 -1.9850036 83.57
-1.5714443 13.943829 -1.9720829 83.57
-1.8818105 16.697788 -1.9650375 83.57
-2.2976727 20.38784 -1.9141312 83.57
-3.0134397 26.739023 -1.8816111 83.57
-0.51276404 4.5498872 -2.038564 83.57
-4.2762537 37.944298 -1.7806981 83.57
-0.54561919 4.8414192 -2.0350332 83.57
-0.58292949 5.172483 -2.0325737 83.57
-8.2249384 72.981995 0 83.57
-0.62446731 5.541059 -2.0295475 83.57
-6.1962633 54.981037 1.2845782 83.57
-0.67286181 5.9704757 -2.0301819 83.57
-0.72396404 6.4239187 -2.0172079 83.57
-5.9627538 52.909046 3.723182 83.57
-0.7888664 6.999814 -2.0198705 83.57
-0.86259079 7.6539898 -2.0163879 83.57
-0.95176208 8.4452295 -2.0137045 83.57
-6.1558027 54.622021 7.7252207 83.57
-1.0559851 9.3700266 -2.0042686 83.57
-1.1824088 10.491817 -1.9892741 83.57
-1.3176435 12.011944 -1.9853278 83.739998
-1.5292014 13.940555 -1.9709694 83.739998
-1.8342085 16.721069 -1.9671283 83.739998
-2.2382565 20.404465 -1.9150602 83.739998
-2.9347427 26.753798 -1.8820297 83.739998
-0.49886358 4.5477562 -2.036937 83.739998
-4.1553741 37.881355 -1.7771578 83.739998
-0.53165448 4.8466859 -2.0365748 83.739998
-7.2701612 66.276474 -1.5479743 83.739998
-0.56737673 5.172338 -2.031846 83.739998
-8.0155573 73.071686 0 83.739998
-0.60740912 5.5372829 -2.0274954 83.739998
-0.65555733 5.976213 -2.0314624 83.739998
-6.2033253 56.550957 2.6530194 83.739998
-0.70469254 6.4241409 -2.0166121 83.739998
-5.8242354 53.095081 3.7350407 83.739998
-0.76851332 7.0059462 -2.0209732 83.739998
-6.1751819 56.294392 5.2835073 83.739998
-0.83945525 7.652669 -2.0153751 83.739998
-0.92754924 8.4557543 -2.0155489 83.739998
-1.0279657 9.3711739 -2.0038528 83.739998
-1.1525596 10.507002 -1.991496 83.739998
-1.2819976 12.0158 -1.9853278 83.910004
-1.4880424 13.947 -1.9712478 83.910004
-1.782902 16.710636 -1.9652698 83.910004
-2.178973 20.422897 -1.9161749 83.910004
-2.8538682 26.748499 -1.8810531 83.910004
-0.48594946 4.5546665 -2.0393775 83.910004
-4.0313025 37.784256 -1.7720336 83.910004
-0.51668441 4.8427367 -2.0342624 83.910004
-7.0834532 66.391197 -1.5501561 83.910004
-0.55281824 5.1814089 -2.0347559 83.910004
-7.8097477 73.198555 0 83.910004
-0.59097701 5.5390606 -2.0274954 83.910004
-5.8539829 54.867725 1.2810966 83.910004
-0.63621455 5.9630594 -2.0263405 83.910004
-0.6866414 6.4356956 -2.0195909 83.910004
-0.74792689 7.010107 -2.0215244 83.910004
-6.0246048 56.466915 5.2979984 83.910004
-0.81654042 7.6532021 -2.0148685 83.910004
-0.90307587 8.4642744 -2.0169325 83.910004
-1.0005715 9.3780737 -2.0046844 83.910004
-1.1220053 10.516238 -1.9926069 83.910004
-1.2473582 12.029366 -1.9869491 84.080002
-1.4478799 13.963174 -1.9729179 84.080002
-1.7337226 16.719805 -1.9657344 84.080002
-2.1177514 20.42333 -1.9156175 84.080002
-2.7753146 26.764788 -1.8816111 84.080002
-0.47281024 4.5597234 -2.0410044 84.080002
-3.9210312 37.813938 -1.7728721 84.080002
-0.50250381 4.8460841 -2.0350332 84.080002
-6.8905597 66.451698 -1.5510845 84.080002
-0.53705794 5.1793199 -2.0333011 84.080002
-7.600368 73.297005 0 84.080002
-0.57453972 5.5407896 -2.0274954 84.080002
-5.6779633 54.757568 1.2781256 84.080002
-0.61969161 5.9762287 -2.0301819 84.080002
-0.66813403 6.4434013 -2.021378 84.080002
-5.5625639 53.644676 3.7713139 84.080002
-0.72652936 7.0065584 -2.0198705 84.080002
-0.79402888 7.6575155 -2.0153751 84.080002
-0.87675357 8.4553022 -2.0141656 84.080002
-0.97193474 9.3732176 -2.0030212 84.080002
-1.091609 10.527341 -1.9940881 84.080002
-1.2083764 12.021444 -1.9850036 84.260002
-1.4036101 13.963712 -1.9723612 84.260002
-1.6827767 16.74098 -1.9675928 84.260002
-2.0505917 20.400162 -1.9128307 84.260002
-2.6868269 26.729702 -1.8785418 84.260002
-0.45756948 4.5520964 -2.036937 84.260002
-0.48690778 4.8439665 -2.0334914 84.260002
-0.5205977 5.1791282 -2.0325737 84.260002
-7.3754625 73.374245 0 84.260002
-0.55694205 5.5406976 -2.0268114 84.260002
-5.4035225 53.756546 1.2543577 84.260002
-0.59996617 5.9687195 -2.0269809 84.260002
-5.4112992 53.833916 2.5231447 84.260002
-0.64731538 6.4397697 -2.0195909 84.260002
-5.3752503 53.475285 3.7581997 84.260002
-0.70451403 7.0088062 -2.0198705 84.260002
-5.695889 56.665134 5.3132329 84.260002
-0.77016169 7.6618977 -2.0158815 84.260002
-0.85057545 8.4618874 -2.0150878 84.260002
-5.5956225 55.667641 7.8630018 84.260002
-0.94287449 9.3801174 -2.0038528 84.260002
-1.0573516 10.518985 -1.9918662 84.260002
-1.1755692 12.032629 -1.9863006 84.419998
-1.3642255 13.963634 -1.9718045 84.419998
-1.6350548 16.735729 -1.9664314 84.419998
-1.9955522 20.425629 -1.9146886 84.419998
-2.6117852 26.73313 -1.8782628 84.419998
-0.44609946 4.5660853 -2.0426314 84.419998
-0.47409678 4.852654 -2.0365748 84.419998
-5.2557178 53.795307 -1.2549148 84.419998
-0.5068574 5.1879783 -2.0354836 84.419998
-6.444963 65.967918 0 84.419998
-0.54165012 5.5441017 -2.0274954 84.419998
-5.3538995 54.800251 1.2783577 84.419998
-0.58329606 5.9703717 -2.0269809 84.419998
-0.6289584 6.4377522 -2.0183992 84.419998
-0.68549985 7.0164866 -2.0215244 84.419998
-6.2161083 63.625454 5.9642196 84.419998
-0.74895084 7.6659441 -2.0163879 84.419998
-0.82694215 8.4642296 -2.0150878 84.419998
-0.91667658 9.3827143 -2.0038528 84.419998
-1.0277818 10.51994 -1.991496 84.419998
-1.1364617 12.022509 -1.9840308 84.599998
-1.3209099 13.973767 -1.9726396 84.599998
-1.582283 16.738806 -1.966199 84.599998
-1.9317483 20.435762 -1.9150602 84.599998
-2.5287266 26.751133 -1.8789604 84.599998
-0.43089277 4.5583696 -2.038564 84.599998
-3.5553126 37.611279 -1.7617851 84.599998
-0.45850202 4.8504448 -2.0350332 84.599998
-0.48985514 5.182126 -2.0325737 84.599998
-6.9591217 73.61982 0 84.599998
-0.52440703 5.547647 -2.0281794 84.599998
-0.56453675 5.9721746 -2.0269809 84.599998
-5.1759787 54.756134 2.5648835 84.599998
-0.60908985 6.4434977 -2.0195909 84.599998
-5.1316175 54.286846 3.8130283 84.599998
-0.66291076 7.0128636 -2.0198705 84.599998
-0.72468179 7.6663327 -2.0158815 84.599998
-0.80016375 8.4648485 -2.0146267 84.599998
-0.88737953 9.387495 -2.0042686 84.599998
-0.99528235 10.528987 -1.9926069 84.599998
-1.101145 12.029758 -1.9846793 84.769997
-1.2794431 13.977625 -1.9726396 84.769997
-1.5335165 16.753319 -1.9673605 84.769997
-1.8707427 20.437437 -1.9146886 84.769997
-2.4498889 26.764479 -1.8793789 84.769997
-0.4171994 4.5578084 -2.0377505 84.769997
-0.44410849 4.8517838 -2.0350332 84.769997
-0.47481698 5.1872673 -2.0340285 84.769997
-6.7474022 73.713829 0 84.769997
-0.50794452 5.5491781 -2.0281794 84.769997
-0.54767805 5.9832578 -2.0301819 84.769997
-5.0136733 54.773239 2.5649767 84.769997
-0.58944684 6.4395728 -2.0178034 84.769997
-0.64227557 7.0167141 -2.0204217 84.769997
-4.9494991 54.072151 5.0657687 84.769997
-0.70175582 7.6665225 -2.0153751 84.769997
-0.77486718 8.4652472 -2.0141656 84.769997
-0.8595224 9.3900871 -2.0042686 84.769997
-0.96367955 10.52798 -1.9918662 84.769997
-1.0661435 12.040836 -1.9859763 84.940002
-1.2374411 13.975441 -1.9718045 84.940002
-1.4829257 16.7479 -1.966199 84.940002
-1.8093928 20.434963 -1.9139454 84.940002
-2.3697627 26.763681 -1.8788209 84.940002
-0.40399659 4.5626659 -2.0393775 84.940002
-0.42954823 4.8512421 -2.0342624 84.940002
-0.45909533 5.1849418 -2.0325737 84.940002
-6.5367737 73.825172 0 84.940002
-0.4918091 5.5544052 -2.0295475 84.940002
-0.5292545 5.9773068 -2.027621 84.940002
-4.8495502 54.769966 2.5641382 84.940002
-0.56983256 6.4355879 -2.0160162 84.940002
-4.8113203 54.338203 3.814563 84.940002
-0.622132 7.0262489 -2.0226269 84.940002
-4.7809634 53.995354 5.0572228 84.940002
-0.67917639 7.6704979 -2.0158815 84.940002
-0.75077677 8.4791403 -2.0169325 84.940002
-0.83148521 9.3906469 -2.0038528 84.940002
-0.93226486 10.528834 -1.991496 84.940002
-1.0320092 12.037868 -1.9850036 85.099998
-1.198917 13.984762 -1.9726396 85.099998
-1.4358116 16.748018 -1.9657344 85.099998
-1.752831 20.445889 -1.9145027 85.099998
-2.2938223 26.756279 -1.8778442 85.099998
-0.39140972 4.5655971 -2.0401909 85.099998
-0.41647226 4.8579388 -2.0365748 85.099998
-0.44477361 5.1880598 -2.0333011 85.099998
-6.3416939 73.972664 0 85.099998
-0.47517267 5.5426493 -2.0247593 85.099998
-0.51223701 5.9749861 -2.0263405 85.099998
-0.55202186 6.4390564 -2.0166121 85.099998
-4.6343389 54.057224 3.793915 85.099998
-0.60168755 7.0183816 -2.0198705 85.099998
-4.6208062 53.899372 5.0470047 85.099998
-0.65725791 7.6665816 -2.0143621 85.099998
-0.72659695 8.4753866 -2.0155489 85.099998
-0.80509126 9.3909836 -2.003437 85.099998
-0.9020198 10.521605 -1.9896444 85.099998
-0.99499816 12.050884 -1.9866248 85.279999
-1.1520432 13.95293 -1.9676293 85.279999
-1.3833526 16.754425 -1.9659667 85.279999
-1.6874428 20.437403 -1.9132023 85.279999
-2.2107389 26.775284 -1.8786813 85.279999
-0.37721491 4.568625 -2.0410044 85.279999
-0.40136042 4.8610625 -2.0373456 85.279999
-5.4625092 66.158981 -1.5412432 85.279999
-0.42877927 5.1931448 -2.0347559 85.279999
-6.1158543 74.071945 0 85.279999
-0.45868549 5.5553527 -2.0288634 85.279999
-0.49377534 5.9803424 -2.027621 85.279999
-4.4958506 54.451336 2.5479271 85.279999
-0.53304708 6.4559808 -2.021378 85.279999
-4.4580879 53.993973 3.7884741 85.279999
-0.57995212 7.0240693 -2.0209732 85.279999
-4.4512897 53.911636 5.0468187 85.279999
-0.63396543 7.6782498 -2.0168946 85.279999
-0.69980705 8.475688 -2.0150878 85.279999
-0.77526271 9.3895664 -2.0026054 85.279999
-0.86976945 10.534182 -1.991496 85.279999
-0.95682192 12.050016 -1.9859763 85.459999
-1.1077329 13.950558 -1.9667943 85.459999
-1.3316537 16.770571 -1.9673605 85.459999
-1.623071 20.440617 -1.9130166 85.459999
-2.1259794 26.774141 -1.8781233 85.459999
-0.36271569 4.567966 -2.0401909 85.459999
-0.38594091 4.8604598 -2.0365748 85.459999
-0.41231498 5.1926088 -2.0340285 85.459999
-5.2718849 66.393021 0 85.459999
-0.4412306 5.5567665 -2.0288634 85.459999
-0.47483516 5.9799752 -2.0269809 85.459999
-0.51200682 6.4481072 -2.0183992 85.459999
-4.3343954 54.586472 3.8290725 85.459999
-0.55788255 7.0258565 -2.0209732 85.459999
-4.2782745 53.879696 5.0425458 85.459999
-0.60953414 7.6763463 -2.0158815 85.459999
-0.67348456 8.4817247 -2.0160103 85.459999
-0.74576074 9.3919563 -2.0026054 85.459999
-0.83620441 10.530984 -1.9903851 85.459999
-0.92136538 12.056738 -1.9866248 85.629997
-1.0685996 13.983405 -1.9709694 85.629997
-1.2811319 16.764544 -1.966199 85.629997
-1.5621119 20.441372 -1.912645 85.629997
-2.0442493 26.750492 -1.8760306 85.629997
-0.34929991 4.5708442 -2.0410044 85.629997
-0.37123674 4.857903 -2.0350332 85.629997
-0.39662248 5.1900945 -2.0325737 85.629997
-0.42474142 5.5580511 -2.0288634 85.629997
-0.45709017 5.9813581 -2.0269809 85.629997
-4.2074432 55.057461 2.5750387 85.629997
-0.49345458 6.4572129 -2.0207822 85.629997
-4.125288 53.982399 3.7858233 85.629997
-0.53688747 7.0255637 -2.0204217 85.629997
-4.129468 54.037102 5.056108 85.629997
-0.58705014 7.6819792 -2.0168946 85.629997
-4.2275534 55.320618 6.4881778 85.629997
-0.64787102 8.4778643 -2.0146267 85.629997
-0.71833819 9.3999796 -2.0038528 85.629997
-0.80525422 10.537338 -1.9911256 85.629997
-0.88333935 12.057605 -1.9863006 85.809998
-1.025243 13.994595 -1.9720829 85.809998
-1.2284583 16.768486 -1.966199 85.809998
-1.4974493 20.44022 -1.9120876 85.809998
-1.9585967 26.734894 -1.874496 85.809998
-0.33453798 4.566452 -2.038564 85.809998
-0.35624304 4.8627267 -2.0365748 85.809998
-0.38140434 5.2061791 -2.0383935 85.809998
-0.40741554 5.5612326 -2.0295475 85.809998
-0.43829694 5.9827642 -2.0269809 85.809998
-4.0226312 54.909016 2.5674922 85.809998
-0.47288725 6.4549232 -2.0195909 85.809998
-3.9476597 53.885654 3.7781501 85.809998
-0.51509434 7.0310507 -2.0215244 85.809998
-3.9563391 54.004128 5.0518351 85.809998
-0.56263095 7.6799264 -2.0158815 85.809998
-4.0592532 55.408913 6.4970055 85.809998
-0.62123388 8.4798584 -2.0146267 85.809998
-0.68851793 9.3982878 -2.0030212 85.809998
-0.77214628 10.539816 -1.9911256 85.809998
-0.85065728 12.044127 -1.9837066 85.959999
-0.98929954 14.007109 -1.9734746 85.959999
-1.1848342 16.775608 -1.9666636 85.959999
-1.4433707 20.436125 -1.9113444 85.959999
-1.886771 26.714058 -1.8726823 85.959999
-0.3229681 4.5727801 -2.0410044 85.959999
-0.34338123 4.8618016 -2.035804 85.959999
-0.3669858 5.1960092 -2.0340285 85.959999
-0.39232525 5.554781 -2.0268114 85.959999
-4.0013504 56.653564 1.3186052 85.959999
-0.42316657 5.9914513 -2.0295417 85.959999
-0.45477611 6.4389987 -2.0142291 85.959999
-3.8098071 53.941578 3.781359 85.959999
-0.49682078 7.0342927 -2.0220757 85.959999
-3.8181701 54.059986 5.056108 85.959999
