# .PCD v0.7 - Point Cloud Data file format
VERSION 0.7
FIELDS x y z intensity
SIZE 4 4 4 4
TYPE F F F F
COUNT 1 1 1 1
WIDTH 1234
HEIGHT 1
VIEWPOINT 0 0 0 1 0 0 0
POINTS 1234
DATA ascii
4.6782832 -1.9617668 -1.9809227 202.75
12.883147 -5.4023523 0 202.75
4.9655347 -2.0822215 -1.9597754 202.75
39.079723 -16.387487 0.98385918 202.75
5.3136787 -2.2282104 -1.9469515 202.75
39.07177 -16.384153 1.9757894 202.75
5.6940236 -2.3877022 -1.9266539 202.75
39.26918 -16.466934 2.9776249 202.75
6.2567511 -2.6236734 -1.9454484 202.75
39.092026 -16.392647 3.9547813 202.75
6.7088752 -2.8132648 -1.9044509 202.75
39.105961 -16.398489 4.9589381 202.75
6.7517014 -2.8312232 -1.7347279 202.75
39.129913 -16.408535 5.9632893 202.75
7.6006622 -3.1872222 -1.751864 202.75
39.11549 -16.402487 6.9685884 202.75
8.7852459 -3.6839592 -1.7948644 202.75
9.8273726 -4.153266 -1.752847 202.91
10.694084 -4.519558 -1.6316655 202.91
12.003264 -5.0728464 -1.5238972 202.91
12.91876 -5.4597549 -1.3084759 202.91
13.03698 -5.5097175 -0.98970485 202.91
2.6035473 -1.100317 -1.2584431 202.91
13.534928 -5.7201619 -0.68524224 202.91
4.4316497 -1.8729136 -2.0095952 202.91
4.6710706 -1.9740982 -1.9801952 202.91
38.823261 -16.407572 0 202.91
4.9683561 -2.0997379 -1.9631957 202.91
38.768597 -16.384472 0.97717446 202.91
5.3039451 -2.2415652 -1.9456711 202.91
38.77375 -16.38665 1.9630256 202.91
5.6996441 -2.4087963 -1.930824 202.91
38.960243 -16.465466 2.9576745 202.91
6.2370038 -2.6358964 -1.9415896 202.91
38.814976 -16.404072 3.9313724 202.91
6.7277255 -2.8432865 -1.9120485 202.91
38.803848 -16.399368 4.9264159 202.91
6.7778282 -2.8644607 -1.7434891 202.91
38.823067 -16.40749 5.9234858 202.91
7.6025438 -3.2130041 -1.7543589 202.91
38.804123 -16.399485 6.9212489 202.91
8.7694931 -3.7061825 -1.7937535 202.91
9.8160915 -4.1848931 -1.7531712 203.09
10.676189 -4.5515785 -1.6311088 203.09
11.961686 -5.0996242 -1.5206449 203.09
12.835598 -5.472199 -1.3017876 203.09
2.6454573 -1.1278375 -1.280407 203.09
12.98761 -5.5370064 -0.65841013 203.09
4.4172554 -1.883208 -2.0057411 203.09
12.911776 -5.5046759 -0.32587954 203.09
4.6648455 -1.9887631 -1.9801952 203.09
12.843504 -5.4755692 0 203.09
4.9392605 -2.1057544 -1.9543031 203.09
38.488861 -16.408953 0.97141814 203.09
5.3108206 -2.2641616 -1.9507929 203.09
38.451927 -16.393206 1.9493301 203.09
5.7183924 -2.4379215 -1.9397603 203.09
38.656887 -16.480587 2.9385612 203.09
6.1950903 -2.6411521 -1.9311153 203.09
38.519619 -16.422064 3.9066632 203.09
6.7116408 -2.8613729 -1.9100224 203.09
38.494484 -16.411348 4.893661 203.09
6.7132993 -2.8620799 -1.7291944 203.09
38.556347 -16.437723 5.8906407 203.09
8.0746984 -3.4424853 -1.8657995 203.09
38.503696 -16.415276 6.8768282 203.09
8.7523823 -3.7314022 -1.7926426 203.09
9.8261261 -4.2216372 -1.7570622 203.25
10.661617 -4.5805926 -1.6308304 203.25
11.980251 -5.1471224 -1.5248264 203.25
12.831244 -5.5127378 -1.3029022 203.25
13.066381 -5.61376 -0.9944483 203.25
2.7094462 -1.1640699 -1.3129458 203.25
4.4136748 -1.8962644 -2.0065119 203.25
4.6592736 -2.0017819 -1.9801952 203.25
12.826325 -5.5106244 0 203.25
4.947175 -2.1254742 -1.9597754 203.25
12.749386 -5.4775686 0.32216582 203.25
5.2957726 -2.2752435 -1.9475918 203.25
38.154522 -16.392477 1.9365662 203.25
5.7062998 -2.4516199 -1.9379731 203.25
38.366913 -16.483727 2.920006 203.25
6.1735597 -2.6523705 -1.9267051 203.25
38.226608 -16.423447 3.8815825 203.25
6.7107348 -2.8831592 -1.9120485 203.25
38.22401 -16.422331 4.865088 203.25
7.3972654 -3.1781161 -1.9076474 203.25
38.268272 -16.441347 5.8536205 203.25
6.8661704 -2.9499397 -1.5884453 203.25
38.236488 -16.427691 6.8372707 203.25
8.7491512 -3.7589321 -1.7941238 203.25
9.8012085 -4.2494879 -1.7551167 203.44
10.555514 -4.5765305 -1.6169131 203.44
11.822782 -5.125977 -1.5069392 203.44
12.854915 -5.5734768 -1.3071753 203.44
2.7340684 -1.1854039 -1.326775 203.44
12.955378 -5.617034 -0.65850329 203.44
4.4158282 -1.9145608 -2.0103662 203.44
12.901756 -5.5937858 -0.32648304 203.44
4.6543193 -2.0179627 -1.9809227 203.44
37.948689 -16.453329 0 203.44
4.9469967 -2.1448581 -1.9625115 203.44
12.77151 -5.5373149 0.32318711 203.44
5.289937 -2.2935462 -1.9482319 203.44
37.890995 -16.428314 1.9259452 203.44
5.6963868 -2.4697697 -1.9373773 203.44
38.068584 -16.50531 2.9014509 203.44
6.1788411 -2.6789463 -1.9311153 203.44
37.94173 -16.450312 3.8581736 203.44
6.7100129 -2.9092453 -1.9145809 203.44
37.928768 -16.444691 4.8344245 203.44
7.4063263 -3.2111444 -1.9127196 203.44
37.9646 -16.460226 5.8154874 203.44
6.8581452 -2.9734707 -1.5888611 203.44
37.939171 -16.449202 6.7938223 203.44
8.7438507 -3.7910519 -1.7956051 203.44
9.6836729 -4.2327056 -1.7363107 203.61
11.823902 -5.1681938 -1.5090299 203.61
11.759946 -5.1402388 -1.1973771 203.61
19.314621 -8.4423647 -0.9830035 203.61
4.4101286 -1.9276544 -2.0103662 203.61
12.888767 -5.6336432 -0.32657588 203.61
4.6500182 -2.0325096 -1.9816501 203.61
12.857421 -5.6199417 0 203.61
4.9337225 -2.1565161 -1.9597754 203.61
37.620178 -16.44367 0.9532209 203.61
5.2917895 -2.313026 -1.9514332 203.61
37.583973 -16.427845 1.9128087 203.61
5.6942821 -2.4889543 -1.9391646 203.61
37.759853 -16.504723 2.88164 203.61
6.1814346 -2.7018874 -1.934423 203.61
37.662846 -16.462322 3.834765 203.61
6.6907144 -2.9244919 -1.9115419 203.61
37.637722 -16.45134 4.8035283 203.61
7.3825006 -3.2268698 -1.9090307 203.61
37.656086 -16.459366 5.7756839 203.61
37.644264 -16.454199 6.7497253 203.61
8.7109537 -3.8075328 -1.7911614 203.61
9.6132803 -4.2359538 -1.725935 203.78
10.49736 -4.6255112 -1.6121812 203.78
11.837601 -5.2160692 -1.5127467 203.78
12.838016 -5.6568875 -1.3088473 203.78
19.30777 -8.5076914 -0.98393512 203.78
4.4111447 -1.9437076 -2.0134494 203.78
30.274347 -13.339956 -0.76809162 203.78
4.6490817 -2.0485511 -1.9838326 203.78
37.385513 -16.473391 0 203.78
4.9255824 -2.1703873 -1.9590914 203.78
12.77685 -5.6299357 0.32416195 203.78
5.2779679 -2.3256607 -1.9488722 203.78
37.30471 -16.437784 1.9010696 203.78
5.6956077 -2.5096877 -1.9421433 203.78
37.475193 -16.512907 2.8636427 203.78
6.157557 -2.7132392 -1.9294615 203.78
37.378761 -16.470415 3.8107986 203.78
6.6997132 -2.9521325 -1.916607 203.78
37.359703 -16.462017 4.7742581 203.78
7.3711128 -3.2479751 -1.9085696 203.78
37.398659 -16.479181 5.7436738 203.78
8.0344477 -3.5402639 -1.8662153 203.78
37.383976 -16.472712 6.7117891 203.78
8.7122078 -3.8389094 -1.7937535 203.78
9.5916519 -4.2604527 -1.7243139 203.95
10.248288 -4.5521202 -1.5759962 203.95
11.863828 -5.2697158 -1.5180897 203.95
12.888511 -5.7248631 -1.3157214 203.95
4.1410508 -1.8393861 -2.0174139 203.95
19.287918 -8.5673742 -0.98421466 203.95
4.4053583 -1.9567872 -2.0134494 203.95
13.938703 -6.1913409 -0.35410389 203.95
4.6429834 -2.0623362 -1.9838326 203.95
37.124447 -16.490065 0 203.95
4.9208388 -2.185755 -1.9597754 203.95
37.076073 -16.468578 0.94189405 203.95
5.2727757 -2.3420796 -1.9495125 203.95
37.027546 -16.447023 1.8894238 203.95
5.6863914 -2.5258009 -1.9415476 203.95
37.156178 -16.50416 2.8429949 203.95
6.1354237 -2.7252536 -1.9250513 203.95
37.114979 -16.485859 3.7888763 203.95
6.6997657 -2.975925 -1.9191395 203.95
37.092842 -16.476027 4.7463822 203.95
7.327651 -3.2548211 -1.8998083 203.95
37.098007 -16.478321 5.7049837 203.95
8.016757 -3.5609105 -1.864552 203.95
37.095055 -16.477009 6.6686654 203.95
8.6774292 -3.8543701 -1.7889396 203.95
9.6211481 -4.3057632 -1.7317713 204.11
10.071031 -4.5070992 -1.5506667 204.11
12.034009 -5.3855929 -1.5417844 204.11
12.943361 -5.7925568 -1.3229669 204.11
13.068062 -5.8483644 -1.0011449 204.11
19.27486 -8.6260996 -0.98477364 204.11
4.3998766 -1.9690816 -2.0134494 204.11
29.936033 -13.397305 -0.76145333 204.11
4.6338053 -2.0737717 -1.9823776 204.11
36.850063 -16.491549 0 204.11
4.9301548 -2.2063975 -1.9659318 204.11
36.783562 -16.461786 0.9356271 204.11
5.2644854 -2.3560209 -1.9488722 204.11
36.758999 -16.450796 1.8780575 204.11
5.6897717 -2.5463498 -1.9451221 204.11
36.851353 -16.492126 2.823184 204.11
6.1470923 -2.7510149 -1.9311153 204.11
36.832508 -16.483692 3.7647243 204.11
6.686131 -2.9922516 -1.9176199 204.11
36.805534 -16.471622 4.715486 204.11
7.3043222 -3.2689114 -1.8961194 204.11
36.82407 -16.479916 5.6699123 204.11
7.9978533 -3.579288 -1.8624729 204.11
36.816521 -16.476538 6.6268382 204.11
8.6612492 -3.8761785 -1.7878287 204.11
9.6230049 -4.3449535 -1.7346895 204.3
10.328594 -4.6635389 -1.592697 204.3
12.00703 -5.4213824 -1.5406228 204.3
12.942231 -5.8436413 -1.3248248 204.3
19.257074 -8.6949024 -0.98533267 204.3
4.3933229 -1.9836613 -2.0134494 204.3
29.718321 -13.418336 -0.75704324 204.3
4.6353927 -2.0929599 -1.986015 204.3
36.558208 -16.506664 0 204.3
4.9176722 -2.2204142 -1.9638797 204.3
36.499157 -16.480001 0.92977798 204.3
5.2514629 -2.3711264 -1.9469515 204.3
36.476643 -16.469835 1.8664116 204.3
5.6760764 -2.5628467 -1.9433348 204.3
36.523705 -16.491085 2.8022571 204.3
6.139688 -2.7721756 -1.9316666 204.3
36.572556 -16.513142 3.7437308 204.3
6.6867518 -3.0191844 -1.9206589 204.3
36.544319 -16.500393 4.6890035 204.3
7.3484268 -3.3179419 -1.910414 204.3
36.543583 -16.500061 5.635119 204.3
7.9752421 -3.6009598 -1.859978 204.3
36.544037 -16.500265 6.587605 204.3
8.6573048 -3.9089229 -1.7896801 204.3
9.7229843 -4.4207759 -1.7547925 204.45
10.525489 -4.7856531 -1.6249851 204.45
11.985563 -5.4495091 -1.5396937 204.45
12.95408 -5.8898673 -1.3276116 204.45
2.7559929 -1.2530749 -1.3479252 204.45
19.236063 -8.7461138 -0.98542583 204.45
4.3881145 -1.9951562 -2.0134494 204.45
29.57024 -13.444783 -0.75416511 204.45
4.6248093 -2.1027749 -1.9838326 204.45
36.310955 -16.509604 0 204.45
4.9084206 -2.2317252 -1.9625115 204.45
36.224728 -16.470398 0.92388248 204.45
5.2607608 -2.3919246 -1.9527136 204.45
36.21516 -16.466047 1.8552315 204.45
5.6693473 -2.5776978 -1.9433348 204.45
36.304234 -16.506546 2.7887244 204.45
6.1044078 -2.7755079 -1.9228462 204.45
36.300789 -16.50498 3.7203219 204.45
6.692915 -3.0430863 -1.924711 204.45
36.271339 -16.49159 4.6595016 204.45
7.3379436 -3.3363631 -1.9099529 204.45
36.289318 -16.499765 5.6025524 204.45
7.9835958 -3.6299238 -1.8641362 204.45
36.274349 -16.492958 6.5467505 204.45
8.6452522 -3.9307609 -1.7893099 204.45
9.735178 -4.4653363 -1.7596561 204.64
10.41055 -4.7751164 -1.6096761 204.64
12.001732 -5.5049605 -1.5441074 204.64
12.950768 -5.9402642 -1.3292836 204.64
2.7883584 -1.2789656 -1.3658216 204.64
19.214218 -8.8131866 -0.98579848 204.64
4.379797 -2.0089273 -2.0126786 204.64
29.35284 -13.463575 -0.74975508 204.64
4.6144242 -2.1165464 -1.9823776 204.64
36.054222 -16.537369 0 204.64
4.9266171 -2.259743 -1.9727722 204.64
35.999073 -16.512074 0.91951883 204.64
5.2407446 -2.4038272 -1.9482319 204.64
35.947895 -16.488598 1.844331 204.64
5.660768 -2.5964839 -1.9433348 204.64
36.024429 -16.523703 2.7714248 204.64
6.0986652 -2.7973387 -1.9239488 204.64
36.035892 -16.528961 3.698771 204.64
6.684546 -3.0660708 -1.9252175 204.64
35.997974 -16.511568 4.631393 204.64
7.3286085 -3.3614898 -1.910414 204.64
35.998577 -16.511845 5.5660892 204.64
7.9732928 -3.6571939 -1.864552 204.64
35.993431 -16.509485 6.5058961 204.64
8.642889 -3.9643242 -1.7915317 204.64
9.7039728 -4.4859204 -1.7564137 204.81
12.035833 -5.5638852 -1.5506119 204.81
12.931277 -5.977828 -1.3290977 204.81
19.202492 -8.8768644 -0.98654383 204.81
4.3754921 -2.0226879 -2.0134494 204.81
29.116753 -13.459995 -0.74474156 204.81
4.6013598 -2.1271014 -1.9794677 204.81
35.772625 -16.53685 0 204.81
4.9198904 -2.2743506 -1.9727722 204.81
35.70491 -16.505547 0.91325194 204.81
5.2404685 -2.4225464 -1.9507929 204.81
35.690269 -16.498779 1.8336169 204.81
5.6461072 -2.6100638 -1.9409518 204.81
35.752491 -16.527542 2.7542646 204.81
6.1025543 -2.8210685 -1.9278077 204.81
35.777016 -16.538881 3.6772201 204.81
6.6508322 -3.0745246 -1.9181265 204.81
35.734253 -16.519112 4.6037493 204.81
7.3027039 -3.3758698 -1.9062639 204.81
35.758869 -16.530491 5.5365844 204.81
7.9606309 -3.6800141 -1.8641362 204.81
35.749027 -16.525942 6.4705539 204.81
8.6310883 -3.9899509 -1.7915317 204.81
9.5825052 -4.4663596 -1.7369592 204.99001
10.411704 -4.8528452 -1.614408 204.99001
12.054304 -5.6184535 -1.5552578 204.99001
12.926873 -6.0251536 -1.330584 204.99001
4.1102948 -1.9157887 -2.0190406 204.99001
19.160023 -8.9303951 -0.98579848 204.99001
4.3557343 -2.0301869 -2.0072827 204.99001
28.92028 -13.479603 -0.74079573 204.99001
4.5895886 -2.1391852 -1.9772853 204.99001
35.508404 -16.550297 0 204.99001
4.9110179 -2.2890017 -1.9720881 204.99001
35.458965 -16.527254 0.90828478 204.99001
5.2345495 -2.4397984 -1.9514332 204.99001
35.446316 -16.521357 1.8237412 204.99001
5.6430712 -2.6302083 -1.9427391 204.99001
35.476158 -16.535267 2.7369649 204.99001
6.1041164 -2.8450994 -1.9311153 204.99001
35.533558 -16.562021 3.657527 204.99001
6.6481547 -3.0986731 -1.9201525 204.99001
35.484127 -16.53898 4.578196 204.99001
7.2444363 -3.3765969 -1.8938137 204.99001
35.494934 -16.544018 5.5037394 204.99001
7.9525771 -3.7066579 -1.8649678 204.99001
35.471546 -16.533117 6.4296994 204.99001
8.606041 -4.0112343 -1.7889396 204.99001
9.5120497 -4.4679222 -1.7265835 205.16
10.105061 -4.7464666 -1.5690376 205.16
12.042975 -5.6567278 -1.5559547 205.16
12.943185 -6.0795674 -1.334114 205.16
4.1112075 -1.9310828 -2.0222945 205.16
19.15695 -8.9982462 -0.98700964 205.16
4.3513618 -2.0438862 -2.0080535 205.16
28.733566 -13.496496 -0.73703557 205.16
4.5849075 -2.1535854 -1.9780128 205.16
35.281738 -16.57225 0 205.16
4.9042044 -2.3035629 -1.9720881 205.16
35.19622 -16.532082 0.90280706 205.16
5.2221427 -2.4529021 -1.9495125 205.16
35.18557 -16.527079 1.8128406 205.16
5.6300583 -2.644505 -1.9409518 205.16
35.217461 -16.542059 2.7207816 205.16
6.0956483 -2.863198 -1.9311153 205.16
35.282391 -16.572557 3.6367192 205.16
6.6371803 -3.1175623 -1.919646 205.16
35.231724 -16.548759 4.5519457 205.16
7.1621652 -3.3641539 -1.8749079 205.16
35.241333 -16.55327 5.4720078 205.16
7.9415441 -3.7302372 -1.8649678 205.16
35.24192 -16.553547 6.3969512 205.16
8.6439123 -4.0601478 -1.7993081 205.16
9.4789104 -4.4826846 -1.7226926 205.31
9.9368334 -4.6992416 -1.5448214 205.31
12.031716 -5.6899357 -1.5564194 205.31
12.939826 -6.119391 -1.3354144 205.31
4.0995312 -1.9387149 -2.0190406 205.31
19.127909 -9.0458059 -0.98673016 205.31
4.3526692 -2.0584269 -2.011137 205.31
28.528227 -13.491323 -0.73267192 205.31
4.591043 -2.1711566 -1.9831051 205.31
35.012226 -16.557682 0 205.31
4.8947592 -2.3147874 -1.9707201 205.31
34.935917 -16.521593 0.89723647 205.31
5.2225542 -2.4698055 -1.9520735 205.31
34.938099 -16.522625 1.8023127 205.31
5.6231155 -2.6592355 -1.9409518 205.31
34.979244 -16.542084 2.705714 205.31
6.0933452 -2.8816123 -1.9327692 205.31
35.028259 -16.565264 3.6149826 205.31
6.6289959 -3.1349277 -1.919646 205.31
34.988949 -16.546673 4.5261602 205.31
7.1603708 -3.3862209 -1.8767524 205.31
35.004509 -16.554031 5.4419465 205.31
7.9317513 -3.7510154 -1.8649678 205.31
34.998642 -16.551256 6.3606362 205.31
8.5461922 -4.0415916 -1.7811631 205.31
9.5886831 -4.5735674 -1.7453895 205.5
10.128557 -4.8310742 -1.5771096 205.5
12.027125 -5.7366443 -1.5582777 205.5
12.924854 -6.1648393 -1.3359718 205.5
13.176258 -6.2847528 -1.0208162 205.5
4.1029739 -1.9570183 -2.0239215 205.5
19.123051 -9.1212273 -0.98803449 205.5
4.3441539 -2.0720551 -2.0103662 205.5
28.295645 -13.49633 -0.72784412 205.5
4.5770922 -2.183161 -1.9801952 205.5
34.767586 -16.583288 0 205.5
4.8921452 -2.3334334 -1.9727722 205.5
34.711296 -16.556438 0.89287287 205.5
5.2160459 -2.4879262 -1.9527136 205.5
34.677547 -16.540342 1.7916918 205.5
5.6194358 -2.6803334 -1.9427391 205.5
34.6991 -16.550621 2.6882751 205.5
6.0646687 -2.8926985 -1.9267051 205.5
34.789803 -16.593885 3.5960326 205.5
6.5993543 -3.1477306 -1.9140744 205.5
34.733074 -16.566828 4.5001426 205.5
7.1596413 -3.4149737 -1.8795191 205.5
34.742062 -16.571112 5.4096584 205.5
7.9175029 -3.7764552 -1.864552 205.5
34.733372 -16.566969 6.3223758 205.5
8.3996954 -4.0064492 -1.7533903 205.5
34.70396 -16.552938 7.2442608 205.5
9.5483894 -4.5891738 -1.7405258 205.67
10.399789 -4.9983754 -1.621645 205.67
12.035117 -5.7843513 -1.56153 205.67
12.9083 -6.2040234 -1.3361576 205.67
4.0922093 -1.966809 -2.021481 205.67
19.088701 -9.1744652 -0.98766184 205.67
4.3396502 -2.0857346 -2.011137 205.67
28.125723 -13.517863 -0.72450173 205.67
4.5722733 -2.1975389 -1.9809227 205.67
34.509125 -16.585873 0 205.67
4.888588 -2.3495667 -1.9741403 205.67
34.451172 -16.558018 0.88744152 205.67
5.2052255 -2.50175 -1.9514332 205.67
34.441051 -16.553154 1.7820024 205.67
5.6149001 -2.6986489 -1.9439306 205.67
34.47002 -16.567076 2.6743238 205.67
6.0543261 -2.909847 -1.9261539 205.67
34.516064 -16.589207 3.5728097 205.67
6.5987048 -3.171488 -1.916607 205.67
34.497566 -16.580317 4.4759831 205.67
7.1600018 -3.4412601 -1.8822858 205.67
34.499954 -16.581463 5.3795972 205.67
7.9115529 -3.8024726 -1.8657995 205.67
34.475948 -16.569927 6.2844396 205.67
8.4356003 -4.0543418 -1.7633885 205.67
34.431492 -16.548559 7.1976027 205.67
9.5232687 -4.6139851 -1.7385805 205.85001
10.362647 -5.0206604 -1.6183048 205.85001
12.095544 -5.8602419 -1.5717512 205.85001
12.91742 -6.2584376 -1.3391302 205.85001
4.0827217 -1.978062 -2.0198541 205.85001
19.066977 -9.2378731 -0.98803449 205.85001
4.3363976 -2.1009672 -2.0126786 205.85001
27.915773 -13.525079 -0.7201845 205.85001
4.5670238 -2.2127044 -1.9816501 205.85001
34.260662 -16.599152 0 205.85001
4.8794909 -2.3640935 -1.9734563 205.85001
34.220844 -16.579861 0.88284576 205.85001
5.1990457 -2.5189164 -1.9520735 205.85001
34.191109 -16.565453 1.771754 205.85001
5.5995216 -2.7129455 -1.9415476 205.85001
34.222092 -16.580465 2.6591167 205.85001
6.0295835 -2.9213088 -1.9211924 205.85001
34.282776 -16.609865 3.5540454 205.85001
6.607862 -3.2014823 -1.9221785 205.85001
34.232571 -16.585541 4.4483395 205.85001
7.1596637 -3.468828 -1.8850526 205.85001
34.246284 -16.592186 5.3481441 205.85001
7.8925261 -3.8238969 -1.8641362 205.85001
34.246117 -16.592104 6.2520156 205.85001
8.3326149 -4.037118 -1.744503 205.85001
34.172386 -16.556383 7.1542768 205.85001
9.4545584 -4.6153822 -1.728529 206.02
10.353044 -5.0539913 -1.6191399 206.02
12.083459 -5.8987188 -1.5724481 206.02
12.884479 -6.2897482 -1.3376439 206.02
4.0751929 -1.9893655 -2.0190406 206.02
19.043074 -9.2961578 -0.98822081 206.02
4.3301449 -2.1138241 -2.0126786 206.02
27.722792 -13.533291 -0.71623868 206.02
4.5570903 -2.2246108 -1.9801952 206.02
34.038723 -16.616505 0 206.02
4.8724551 -2.3785608 -1.9734563 206.02
33.964867 -16.580452 0.87750727 206.02
5.1932516 -2.5351624 -1.9527136 206.02
33.956886 -16.576555 1.7621579 206.02
5.5948792 -2.7312229 -1.9427391 206.02
33.97015 -16.583031 2.6433518 206.02
6.0398932 -2.9484632 -1.9272563 206.02
34.052601 -16.62328 3.5352812 206.02
6.5913792 -3.217679 -1.9201525 206.02
33.999344 -16.597281 4.4244123 206.02
7.1580844 -3.4943244 -1.8873581 206.02
34.013584 -16.604233 5.3194742 206.02
7.8899355 -3.8515885 -1.8662153 206.02
34.003422 -16.599274 6.2166734 206.02
8.4565973 -4.1282129 -1.7730165 206.02
33.946491 -16.571482 7.1172466 206.02
9.4567614 -4.6512532 -1.7314471 206.19
10.329117 -5.0803165 -1.6177481 206.19
12.078382 -5.9406819 -1.5740743 206.19
12.881842 -6.3358593 -1.3393159 206.19
4.0610747 -1.9974161 -2.0149734 206.19
19.036921 -9.3631992 -0.98933882 206.19
4.3205419 -2.1250336 -2.011137 206.19
27.544363 -13.547537 -0.71266425 206.19
4.5521412 -2.2389443 -1.9809227 206.19
33.786472 -16.617682 0 206.19
4.8653765 -2.3930073 -1.9734563 206.19
33.714573 -16.582319 0.87230808 206.19
5.1891069 -2.5522325 -1.9539942 206.19
33.721111 -16.585533 1.7524685 206.19
5.5850377 -2.7469685 -1.9421433 206.19
33.738186 -16.593933 2.6291215 206.19
6.0345688 -2.9680679 -1.9283589 206.19
33.808357 -16.628445 3.5150309 206.19
6.599165 -3.2457612 -1.9252175 206.19
33.757435 -16.603399 4.3993239 206.19
7.1599092 -3.52156 -1.8905859 206.19
33.788227 -16.618544 5.2919178 206.19
7.8293204 -3.850806 -1.8545723 206.19
33.784016 -16.616472 6.1855459 206.19
8.4566574 -4.159358 -1.7756085 206.19
33.761375 -16.605337 7.0887332 206.19
9.6710348 -4.7923307 -1.7732742 206.36
10.299801 -5.1039062 -1.6155213 206.36
12.108759 -6.0003076 -1.5803463 206.36
12.911162 -6.3979254 -1.3443321 206.36
4.0289364 -1.9964769 -2.0019577 206.36
18.992945 -9.4116583 -0.9885003 206.36
4.3158717 -2.1386631 -2.0119078 206.36
27.382219 -13.568833 -0.70950758 206.36
4.562171 -2.2607129 -1.9881974 206.36
33.570358 -16.635269 0 206.36
4.8633065 -2.409936 -1.9755083 206.36
33.489651 -16.595276 0.86775875 206.36
5.1764183 -2.5650938 -1.9520735 206.36
33.489162 -16.595034 1.7429655 206.36
5.5683088 -2.759289 -1.9391646 206.36
33.508247 -16.60449 2.6150308 206.36
6.034349 -2.9902277 -1.9311153 206.36
33.580441 -16.640265 3.4964523 206.36
6.5739026 -3.2575953 -1.9206589 206.36
33.530033 -16.615286 4.3760939 206.36
7.1633792 -3.5497012 -1.8942748 206.36
33.540012 -16.620232 5.2607431 206.36
7.381392 -3.6577342 -1.7510322 206.36
33.540047 -16.620249 6.1498795 206.36
8.666173 -4.2943869 -1.8222669 206.36
33.514717 -16.607698 7.0472589 206.36
9.642561 -4.8097048 -1.7703561 206.50999
10.293492 -5.1343894 -1.6166347 206.50999
12.084121 -6.027554 -1.5791849 206.50999
12.921098 -6.4450378 -1.3471189 206.50999
13.172337 -6.5703554 -1.0293266 206.50999
4.0024409 -1.9964159 -1.9913826 206.50999
18.995056 -9.4747257 -0.98989785 206.50999
4.3053036 -2.1474833 -2.0095952 206.50999
27.23925 -13.586926 -0.70672226 206.50999
4.5512357 -2.2701542 -1.986015 206.50999
33.317295 -16.618652 0 206.50999
4.8620262 -2.4251764 -1.9775605 206.50999
33.26001 -16.590078 0.86293089 206.50999
5.1578164 -2.5727165 -1.9475918 206.50999
33.263248 -16.591694 1.7334625 206.50999
5.5610662 -2.7738574 -1.9391646 206.50999
33.261131 -16.590637 2.5991261 206.50999
6.0144572 -3.0000086 -1.9272563 206.50999
33.347874 -16.633904 3.4767594 206.50999
6.5774713 -3.2808397 -1.9242045 206.50999
33.313992 -16.617004 4.3535604 206.50999
7.1174903 -3.5502009 -1.8845913 206.50999
33.315613 -16.617813 5.2323518 206.50999
7.8059406 -3.8935997 -1.8541565 206.50999
33.312752 -16.616385 6.1161585 206.50999
8.6373129 -4.3082876 -1.8185638 206.50999
33.281178 -16.600636 7.007266 206.50999
9.6415796 -4.8513179 -1.7732742 206.71001
10.286123 -5.1756306 -1.6183048 206.71001
12.061233 -6.0688062 -1.5789526 206.71001
12.914532 -6.498157 -1.3487909 206.71001
3.9938159 -2.0095537 -1.9905691 206.71001
18.956514 -9.5382795 -0.9896183 206.71001
4.2928352 -2.1600101 -2.0072827 206.71001
27.096992 -13.634294 -0.7042619 206.71001
4.538291 -2.283515 -1.9838326 206.71001
33.091145 -16.650349 0 206.71001
4.8535309 -2.4421332 -1.9775605 206.71001
33.030434 -16.619801 0.85847443 206.71001
5.1403418 -2.5864468 -1.9443905 206.71001
33.024883 -16.617008 1.7240527 206.71001
5.5547605 -2.7949684 -1.9403561 206.71001
33.031921 -16.62055 2.5857329 206.71001
6.000514 -3.0192564 -1.9261539 206.71001
33.117058 -16.663387 3.4587383 206.71001
6.5625224 -3.3020401 -1.9231915 206.71001
33.055267 -16.632296 4.3273106 206.71001
7.1050544 -3.5750239 -1.8845913 206.71001
33.071636 -16.640533 5.2031255 206.71001
7.1509528 -3.5981185 -1.7015493 206.71001
33.080013 -16.644749 6.0840588 206.71001
8.6187096 -4.3366442 -1.8178233 206.71001
33.049213 -16.629251 6.9706059 206.71001
9.6244736 -4.8764396 -1.7726257 206.87
10.278696 -5.2079148 -1.6194181 206.87
12.046011 -6.1033616 -1.5791849 206.87
12.912322 -6.5422959 -1.3504629 206.87
13.276731 -6.7269316 -1.0407666 206.87
4.0207853 -2.0372143 -2.0068386 206.87
18.952972 -9.6029167 -0.99082947 206.87
4.286787 -2.1719897 -2.0072827 206.87
26.989254 -13.674665 -0.70245147 206.87
4.5352201 -2.2978635 -1.9852875 206.87
32.851841 -16.645067 0 206.87
4.845016 -2.454828 -1.9768764 206.87
32.785915 -16.611664 0.85332167 206.87
5.1466208 -2.6076422 -1.9495125 206.87
32.801918 -16.619774 1.7148291 206.87
5.5435276 -2.8087435 -1.9391646 206.87
32.809189 -16.623457 2.5719211 206.87
5.998919 -3.0394769 -1.9283589 206.87
32.885654 -16.662199 3.4394169 206.87
6.5619054 -3.3247256 -1.925724 206.87
32.845669 -16.641939 4.3059387 206.87
7.0950432 -3.594851 -1.8845913 206.87
32.857201 -16.647783 5.1766825 206.87
32.855598 -16.646971 6.0513105 206.87
7.3126884 -3.7051253 -1.5445387 206.87
32.850117 -16.644194 6.9383898 206.87
9.6038332 -4.9039588 -1.7716529 207.05
10.274632 -5.2464857 -1.6213666 207.05
12.889932 -6.5819235 -1.3502772 207.05
4.0159922 -2.0506668 -2.007652 207.05
18.894241 -9.6478748 -0.98933882 207.05
4.284873 -2.187964 -2.0095952 207.05
26.874929 -13.723016 -0.7005946 207.05
4.5312972 -2.3137944 -1.9867425 207.05
32.637295 -16.665424 0 207.05
4.8439751 -2.4734557 -1.9796126 207.05
32.571518 -16.631836 0.84909731 207.05
5.1384029 -2.6237979 -1.9495125 207.05
32.568058 -16.63007 1.7053261 207.05
5.5346766 -2.8261452 -1.9391646 207.05
32.59333 -16.642973 2.5590861 207.05
5.9961896 -3.0618052 -1.930564 207.05
32.662888 -16.678492 3.4215815 207.05
6.5410891 -3.3400447 -1.922685 207.05
32.60923 -16.651094 4.2817793 207.05
7.0854478 -3.6180079 -1.8850526 207.05
32.61071 -16.65185 5.1460648 207.05
7.2636323 -3.7089934 -1.7335677 207.05
32.623856 -16.658562 6.0182376 207.05
32.598118 -16.64542 6.8961749 207.05
9.589241 -4.9324327 -1.7716529 207.22
10.271348 -5.2832894 -1.6233151 207.22
12.880971 -6.6256046 -1.3513919 207.22
13.139585 -6.7586288 -1.0332329 207.22
4.0163894 -2.0659163 -2.010906 207.22
18.890404 -9.7166862 -0.99064314 207.22
4.2750802 -2.1989796 -2.0080535 207.22
26.851875 -13.81184 -0.70105886 207.22
4.5244122 -2.3272288 -1.9867425 207.22
32.406296 -16.668875 0 207.22
4.8065324 -2.4723434 -1.9672998 207.22
32.337112 -16.633289 0.84426945 207.22
5.1305957 -2.6390324 -1.9495125 207.22
32.371117 -16.65078 1.6975932 207.22
5.5313601 -2.8451743 -1.9409518 207.22
32.364613 -16.647436 2.5449951 207.22
5.9973364 -3.0848589 -1.9338717 207.22
32.437946 -16.685156 3.4031889 207.22
6.5431938 -3.3656328 -1.9262305 207.22
32.37067 -16.650551 4.2569232 207.22
32.386803 -16.65885 5.1185083 207.22
7.0281811 -3.6150961 -1.6799265 207.22
32.379482 -16.655085 5.9822469 207.22
32.386044 -16.658459 6.8617368 207.22
8.418046 -4.3616371 -1.5576539 207.39
10.27673 -5.3246751 -1.6266552 207.39
10.429185 -5.4036665 -1.3735981 207.39
4.0134864 -2.0795052 -2.0125329 207.39
13.307525 -6.8950191 -0.69893771 207.39
4.2668982 -2.2108052 -2.0072827 207.39
26.888891 -13.931924 -0.7031014 207.39
4.5158329 -2.3397856 -1.986015 207.39
32.18977 -16.678465 0 207.39
4.8125253 -2.4935105 -1.9727722 207.39
32.13139 -16.648216 0.84018433 207.39
5.1244249 -2.6551151 -1.9501526 207.39
32.161922 -16.664036 1.6892083 207.39
5.5178084 -2.8589387 -1.9391646 207.39
32.146786 -16.656195 2.5317414 207.39
5.9864497 -3.1017554 -1.9333204 207.39
32.213253 -16.690634 3.3847964 207.39
6.5434866 -3.3903725 -1.9292696 207.39
32.176495 -16.671587 4.2378745 207.39
6.9670882 -3.609853 -1.8592299 207.39
32.171932 -16.669222 5.0923438 207.39
32.177475 -16.672094 5.9540381 207.39
32.168949 -16.667677 6.8261876 207.39
8.4130497 -4.3926287 -1.5592752 207.57001
10.254684 -5.3541842 -1.6258202 207.57001
10.45794 -5.4603086 -1.379638 207.57001
13.204169 -6.8941717 -1.0416037 207.57001
4.0020747 -2.0895667 -2.0100925 207.57001
13.570924 -7.0856619 -0.71393758 207.57001
4.255024 -2.2216368 -2.0049701 207.57001
13.862054 -7.2376671 -0.36306325 207.57001
4.5134144 -2.3565478 -1.9881974 207.57001
31.96347 -16.688795 0 207.57001
4.8163295 -2.5147061 -1.9775605 207.57001
31.910549 -16.661163 0.8357743 207.57001
5.122777 -2.6747086 -1.9527136 207.57001
31.927 -16.669752 1.679612 207.57001
5.5172615 -2.8806775 -1.9421433 207.57001
31.919212 -16.665686 2.5179298 207.57001
5.9647465 -3.1143184 -1.9294615 207.57001
32.000027 -16.70788 3.3678899 207.57001
6.5190825 -3.4037488 -1.9252175 207.57001
31.953154 -16.683409 4.2153411 207.57001
6.8608313 -3.5821831 -1.8338684 207.57001
31.947351 -16.680378 5.0650659 207.57001
31.96224 -16.688152 5.9238834 207.57001
8.5282574 -4.4527812 -1.812639 207.57001
31.933491 -16.673141 6.7873054 207.57001
8.4007502 -4.4161048 -1.5592752 207.73
10.246705 -5.3864861 -1.6269336 207.73
12.821486 -6.7399964 -1.3513919 207.73
3.9865205 -2.0956335 -2.0052116 207.73
4.2537041 -2.2360864 -2.0072827 207.73
4.505167 -2.3682754 -1.9874699 207.73
31.762726 -16.697025 0 207.73
4.8159428 -2.5316441 -1.9802966 207.73
31.692226 -16.659964 0.83127141 207.73
5.1136107 -2.688122 -1.9520735 207.73
31.721172 -16.67518 1.671227 207.73
5.5108857 -2.8969617 -1.9427391 207.73
31.710077 -16.66935 2.5050945 207.73
5.9577279 -3.1318576 -1.9300128 207.73
31.776978 -16.704517 3.3493116 207.73
6.4992766 -3.4165387 -1.9221785 207.73
31.732367 -16.681067 4.1923432 207.73
6.744 -3.5451849 -1.805279 207.73
31.746378 -16.688431 5.0405712 207.73
7.2416134 -3.8067703 -1.7389734 207.73
31.753054 -16.69194 5.8937292 207.73
8.5714598 -4.5058436 -1.8244888 207.73
31.749371 -16.690004 6.7580514 207.73
8.4740343 -4.4886642 -1.5754871 207.91
10.252484 -5.4307022 -1.6305521 207.91
10.463973 -5.542727 -1.3847486 207.91
12.809047 -6.7849035 -1.3523208 207.91
3.9896047 -2.1132786 -2.0100925 207.91
13.369747 -7.0819044 -0.70555258 207.91
4.2417655 -2.2468472 -2.0049701 207.91
12.8241 -6.7928777 -0.33692789 207.91
4.5042901 -2.3859053 -1.9903799 207.91
31.547518 -16.7106 0 207.91
4.8063049 -2.5458815 -1.9796126 207.91
31.484243 -16.677086 0.82718629 207.91
5.108489 -2.7059474 -1.9533539 207.91
31.502676 -16.68685 1.6624694 207.91
5.5068188 -2.9169412 -1.9445263 207.91
31.4883 -16.679234 2.4917011 207.91
5.9563541 -3.1550584 -1.9327692 207.91
31.558929 -16.716646 3.3318479 207.91
6.4902205 -3.4378455 -1.922685 207.91
31.516554 -16.694199 4.1707392 207.91
6.8532114 -3.6301203 -1.8375573 207.91
31.532776 -16.702793 5.0149636 207.91
31.538267 -16.705702 5.863575 207.91
8.5902615 -4.5502291 -1.8315245 207.91
31.526573 -16.699507 6.7217617 207.91
9.4950008 -5.0613427 -1.7677621 208.06
10.213763 -5.4444814 -1.6266552 208.06
10.386319 -5.5364633 -1.3763858 208.06
12.727978 -6.7846923 -1.3456326 208.06
14.120106 -7.5267711 -1.1188939 208.06
3.9808338 -2.1219971 -2.0084655 208.06
13.218936 -7.0463996 -0.69856507 208.06
4.2293549 -2.254472 -2.0018868 208.06
13.069174 -6.966568 -0.34384471 208.06
4.5029602 -2.4003184 -1.9925623 208.06
31.34129 -16.706581 0 208.06
4.7979646 -2.5575716 -1.9789286 208.06
31.279913 -16.673864 0.82296193 208.06
5.0880113 -2.7121818 -1.9482319 208.06
31.300213 -16.684687 1.6540843 208.06
5.4957938 -2.9295518 -1.9433348 208.06
31.28783 -16.678085 2.4792845 208.06
5.9429841 -3.1679282 -1.9311153 208.06
31.355145 -16.713966 3.3149416 208.06
6.4811983 -3.4548249 -1.922685 208.06
31.297443 -16.68321 4.1475091 208.06
6.8591409 -3.6562886 -1.8417073 208.06
31.322906 -16.696783 4.9885206 208.06
6.9985962 -3.7306259 -1.685748 208.06
31.332458 -16.701874 5.8334203 208.06
7.131834 -3.8016486 -1.5226908 208.06
31.323181 -16.69693 6.6876936 208.06
9.4486103 -5.0769215 -1.7622499 208.25
10.220078 -5.4914455 -1.6305521 208.25
10.339905 -5.5558314 -1.372669 208.25
12.707163 -6.827805 -1.3458184 208.25
3.976994 -2.1369159 -2.0100925 208.25
12.880481 -6.9209318 -0.68188822 208.25
4.2267323 -2.2711053 -2.0041993 208.25
13.347183 -7.1717005 -0.3517828 208.25
4.4966168 -2.4161193 -1.9932898 208.25
31.120108 -16.721437 0 208.25
4.7894573 -2.5734682 -1.9789286 208.25
31.067692 -16.693274 0.81883043 208.25
5.0856657 -2.7326267 -1.9507929 208.25
31.079285 -16.699503 1.6453266 208.25
5.4810038 -2.9450495 -1.9415476 208.25
31.075935 -16.697702 2.4668679 208.25
5.9392204 -3.1912582 -1.9333204 208.25
31.146935 -16.735851 3.2987783 208.25
6.4884539 -3.486372 -1.9282565 208.25
31.08971 -16.705103 4.1272988 208.25
6.9155512 -3.7158597 -1.8601521 208.25
31.105114 -16.713381 4.9626346 208.25
7.2429557 -3.8917804 -1.7477057 208.25
31.123915 -16.723482 5.8048873 208.25
7.1745901 -3.8550465 -1.5345405 208.25
31.117016 -16.719776 6.655477 208.25
9.4525986 -5.1152658 -1.7658167 208.42
10.193288 -5.5160894 -1.6288819 208.42
12.800687 -6.9270816 -1.3578943 208.42
3.9642086 -2.1452284 -2.0068386 208.42
12.866918 -6.9629216 -0.68226087 208.42
4.241075 -2.2950544 -2.0142202 208.42
13.403219 -7.2531414 -0.35382536 208.42
4.489428 -2.4294505 -1.9932898 208.42
30.920845 -16.73279 0 208.42
4.7867589 -2.5903509 -1.9809806 208.42
30.861519 -16.700686 0.81469887 208.42
5.0675368 -2.7422934 -1.9469515 208.42
30.869707 -16.705116 1.6368484 208.42
5.4755998 -2.9631162 -1.9427391 208.42
30.864826 -16.702475 2.4540327 208.42
5.9432521 -3.216186 -1.9377307 208.42
30.939518 -16.742895 3.2820578 208.42
6.4746776 -3.5037665 -1.9272436 208.42
30.881025 -16.711243 4.1061597 208.42
6.901072 -3.7345097 -1.8592299 208.42
30.895138 -16.718878 4.9370265 208.42
7.098896 -3.8415618 -1.7156873 208.42
30.911003 -16.727465 5.7744083 208.42
8.5649767 -4.6349301 -1.8348572 208.42
30.922071 -16.733454 6.6243715 208.42
9.4278173 -5.140213 -1.7641954 208.60001
11.941722 -6.510838 -1.5905677 208.60001
12.810332 -6.9844203 -1.3612384 208.60001
13.132409 -7.1600218 -1.0459286 208.60001
3.9622622 -2.1602955 -2.009279 208.60001
13.03091 -7.1046824 -0.69213653 208.60001
4.2354646 -2.3092501 -2.0149913 208.60001
12.959048 -7.0655026 -0.34268418 208.60001
4.4785023 -2.4417589 -1.9918349 208.60001
30.72238 -16.750385 0 208.60001
4.7802477 -2.6062756 -1.9816647 208.60001
30.659683 -16.716202 0.81075305 208.60001
5.0672145 -2.7627351 -1.9501526 208.60001
30.662718 -16.717855 1.6286497 208.60001
5.4712925 -2.9830456 -1.9445263 208.60001
30.6563 -16.714357 2.4416161 208.60001
5.9432468 -3.2403634 -1.9410383 208.60001
30.734657 -16.75708 3.2658947 208.60001
6.4670358 -3.5259423 -1.9282565 208.60001
30.673151 -16.723545 4.0854845 208.60001
6.8978491 -3.7608294 -1.8615354 208.60001
30.691179 -16.733374 4.9128103 208.60001
7.0318294 -3.8338778 -1.7023809 208.60001
30.700621 -16.738522 5.7449026 208.60001
8.5486479 -4.6608739 -1.834487 208.60001
30.701965 -16.739256 6.5884523 208.60001
9.4056768 -5.160131 -1.7625742 208.75
11.936827 -6.5487676 -1.5921937 208.75
3.9549911 -2.1697824 -2.0084655 208.75
12.933445 -7.095531 -0.68794405 208.75
4.2326403 -2.3221059 -2.0165329 208.75
12.756444 -6.9984245 -0.33780989 208.75
4.4769945 -2.4561634 -1.9940172 208.75
30.543407 -16.756687 0 208.75
4.7668171 -2.6151655 -1.9789286 208.75
30.456293 -16.708895 0.80652869 208.75
5.0583034 -2.7750802 -1.9495125 208.75
30.489231 -16.726965 1.6217554 208.75
5.4617901 -2.9964406 -1.9439306 208.75
30.465506 -16.713949 2.4298971 208.75
5.9296865 -3.2531374 -1.9393845 208.75
30.544029 -16.757029 3.2502887 208.75
6.4493012 -3.5382078 -1.925724 208.75
30.486454 -16.725441 4.0664358 208.75
6.9391661 -3.806957 -1.8753691 208.75
30.50141 -16.733646 4.8894296 208.75
6.9068542 -3.7892299 -1.6745207 208.75
30.516542 -16.741949 5.7186389 208.75
30.51157 -16.739222 6.5569763 208.75
9.4144201 -5.2056179 -1.7674378 208.94
9.5379124 -5.2739019 -1.5317391 208.94
11.902876 -6.5815868 -1.5905677 208.94
13.105403 -7.2465134 -1.0471842 208.94
12.955301 -7.163516 -0.69036639 208.94
4.2281466 -2.3379152 -2.0180745 208.94
13.244102 -7.3232055 -0.351365 208.94
4.4655643 -2.4691932 -1.9925623 208.94
4.756474 -2.630049 -1.9782445 208.94
30.260735 -16.732397 0.80281496 208.94
5.0523891 -2.7936726 -1.9507929 208.94
30.270998 -16.738071 1.6130909 208.94
5.448482 -3.0126884 -1.9427391 208.94
30.256266 -16.729927 2.4176199 208.94
5.9222307 -3.2746437 -1.940487 208.94
30.338423 -16.775354 3.2343113 208.94
6.4426122 -3.5623839 -1.9272436 208.94
30.274364 -16.739935 4.0455289 208.94
6.9435349 -3.8393643 -1.8799802 208.94
30.296694 -16.752281 4.8654914 208.94
6.9952588 -3.8679647 -1.6990544 208.94
30.301964 -16.755196 5.6888089 208.94
30.304535 -16.756617 6.5243897 208.94
9.3136253 -5.1838975 -1.7512258 209.10001
9.5300694 -5.304369 -1.5328525 209.10001
11.879243 -6.6119018 -1.5898708 209.10001
11.918921 -6.633986 -1.2726195 209.10001
12.743225 -7.0927882 -0.68011802 209.10001
4.216764 -2.3470206 -2.0157621 209.10001
12.830509 -7.1413698 -0.34092015 209.10001
4.4602795 -2.4825597 -1.9932898 209.10001
13.417646 -7.4681659 0 209.10001
4.7326894 -2.6341813 -1.9714041 209.10001
30.060148 -16.731264 0.79872984 209.10001
5.0478792 -2.8096135 -1.9520735 209.10001
30.072266 -16.738008 1.6049854 209.10001
5.4367113 -3.0260348 -1.9415476 209.10001
30.073452 -16.738668 2.4067378 209.10001
5.9063439 -3.2874289 -1.9382819 209.10001
30.141819 -16.776722 3.218334 209.10001
6.4275675 -3.5775383 -1.925724 209.10001
30.074757 -16.739395 4.0250864 209.10001
6.9106798 -3.8464351 -1.8739856 209.10001
30.088856 -16.747242 4.8396053 209.10001
7.0528045 -3.9255407 -1.7156873 209.10001
30.09296 -16.749527 5.6583304 209.10001
7.7382855 -4.3070745 -1.6685907 209.10001
30.10478 -16.756105 6.4914327 209.10001
9.3317223 -5.2324357 -1.7577106 209.28
10.086889 -5.6558695 -1.6252635 209.28
11.858413 -6.649189 -1.5898708 209.28
12.769963 -7.1603088 -1.365883 209.28
2.6741645 -1.499444 -1.3650081 209.28
12.795811 -7.1748023 -0.68412423 209.28
4.2222471 -2.3674772 -2.0219288 209.28
12.750458 -7.1493721 -0.33938822 209.28
4.455708 -2.4983821 -1.9947448 209.28
4.7112765 -2.6416831 -1.9659318 209.28
29.862686 -16.744453 0.79487687 209.28
5.0324168 -2.8217514 -1.9495125 209.28
29.887098 -16.758142 1.5979047 209.28
5.4271779 -3.0430996 -1.9415476 209.28
29.869318 -16.748173 2.3946002 209.28
5.8993406 -3.3078485 -1.9393845 209.28
29.943062 -16.789522 3.202728 209.28
6.3572302 -3.5645938 -1.9079964 209.28
29.879942 -16.754129 4.0060377 209.28
6.8544273 -3.8433797 -1.8619965 209.28
29.89962 -16.765163 4.817616 209.28
29.902479 -16.766766 5.632391 209.28
29.914846 -16.773701 6.4618082 209.28
9.328186 -5.2668929 -1.7599803 209.45
10.092484 -5.698432 -1.6288819 209.45
11.835172 -6.6823907 -1.5894061 209.45
12.7608 -7.20502 -1.3671834 209.45
13.090765 -7.3913255 -1.0512301 209.45
2.6983421 -1.5235415 -1.3796507 209.45
12.951914 -7.3129272 -0.69362724 209.45
4.2103834 -2.3772721 -2.0196164 209.45
4.4498982 -2.5125074 -1.9954722 209.45
4.7066908 -2.6574981 -1.9672998 209.45
29.657913 -16.745491 0.79074532 209.45
5.0240226 -2.8366704 -1.9495125 209.45
29.689371 -16.763252 1.5899855 209.45
5.4231124 -3.062005 -1.9433348 209.45
29.68572 -16.76119 2.3838577 209.45
5.8878264 -3.3243923 -1.9388331 209.45
29.745722 -16.795069 3.1869366 209.45
6.3297777 -3.5739276 -1.9029315 209.45
29.676149 -16.755787 3.9853628 209.45
29.696255 -16.767139 4.7928433 209.45
6.7816839 -3.8290834 -1.6553929 209.45
29.697931 -16.768085 5.603209 209.45
29.702356 -16.770584 6.4266291 209.45
9.3571243 -5.3199077 -1.7684106 209.62
10.175392 -5.7851262 -1.6450261 209.62
11.798024 -6.7076588 -1.5870831 209.62
12.742828 -7.2448187 -1.367555 209.62
12.938696 -7.3561773 -1.0407666 209.62
4.2049155 -2.3906662 -2.0203872 209.62
13.243167 -7.5292816 -0.35368609 209.62
4.440804 -2.5247786 -1.9947448 209.62
29.506542 -16.775675 0 209.62
4.6791797 -2.660305 -1.9590914 209.62
29.477736 -16.759298 0.78726375 209.62
5.0221725 -2.8553102 -1.9520735 209.62
29.502298 -16.773262 1.5826254 209.62
5.412344 -3.0771387 -1.9427391 209.62
29.491901 -16.767351 2.3722782 209.62
5.8796082 -3.3427975 -1.9393845 209.62
29.548613 -16.799595 3.171145 209.62
6.2703691 -3.564961 -1.8882428 209.62
29.493334 -16.768166 3.9674757 209.62
29.512081 -16.778824 4.7711325 209.62
6.9692693 -3.9623144 -1.7040442 209.62
29.51766 -16.781996 5.578567 209.62
7.770638 -4.4179254 -1.6841434 209.62
29.519197 -16.782871 6.3977456 209.62
9.3472157 -5.3532004 -1.7697076 209.8
10.194978 -5.8387184 -1.6511496 209.8
11.769999 -6.7407413 -1.586154 209.8
12.74247 -7.2976813 -1.3699702 209.8
12.970923 -7.4285183 -1.045231 209.8
3.9288352 -2.2500651 -2.0157869 209.8
12.596678 -7.2141852 -0.67695034 209.8
4.1893768 -2.3992789 -2.0165329 209.8
12.530627 -7.1763582 -0.33525673 209.8
4.4280005 -2.5359399 -1.9925623 209.8
4.6773224 -2.6787279 -1.9618275 209.8
29.279194 -16.768353 0.7833643 209.8
4.9967356 -2.8616574 -1.9456711 209.8
29.303833 -16.782463 1.5747993 209.8
5.4059634 -3.0960245 -1.9439306 209.8
29.307501 -16.784565 2.3616753 209.8
5.8624039 -3.3574305 -1.9371793 209.8
29.367815 -16.819107 3.1573968 209.8
6.1919804 -3.5461805 -1.8679827 209.8
29.288816 -16.773863 3.9470329 209.8
6.2079287 -3.5553143 -1.6950717 209.8
29.316576 -16.789761 4.7480297 209.8
29.320936 -16.792259 5.5513306 209.8
7.7840085 -4.4579439 -1.6900684 209.8
29.326475 -16.795429 6.3673806 209.8
9.3432589 -5.3878121 -1.7719772 209.97
10.175893 -5.8679528 -1.6508713 209.97
11.731017 -6.7647185 -1.5835986 209.97
12.719036 -7.3344622 -1.3697845 209.97
12.843396 -7.4061747 -1.0367208 209.97
3.9205592 -2.2607996 -2.0149734 209.97
12.840014 -7.4042239 -0.69120491 209.97
4.1886349 -2.415386 -2.0196164 209.97
12.644384 -7.2914138 -0.33887759 209.97
4.43014 -2.5546508 -1.9969271 209.97
12.836642 -7.4022799 0 209.97
4.6888909 -2.70386 -1.970036 209.97
29.089012 -16.774246 0.77960414 209.97
5.0144854 -2.8916147 -1.9559149 209.97
29.111992 -16.787498 1.5671597 209.97
5.3719449 -3.0977447 -1.9349943 209.97
29.105476 -16.783741 2.3493981 209.97
5.8657403 -3.3824928 -1.9415896 209.97
29.17115 -16.821613 3.1416051 209.97
6.1914878 -3.5703361 -1.8710217 209.97
29.104692 -16.783289 3.9289136 209.97
6.1703782 -3.5581629 -1.6876938 209.97
29.127657 -16.796532 4.7254834 209.97
29.129084 -16.797354 5.5244188 209.97
7.7077503 -4.4446926 -1.676367 209.97
29.136898 -16.801861 6.3370156 209.97
9.3272314 -5.4155102 -1.7719772 210.14
10.136171 -5.8851914 -1.6472528 210.14
11.659357 -6.7695723 -1.5766295 210.14
12.695496 -7.3711677 -1.3695987 210.14
12.914536 -7.4983454 -1.0442544 210.14
3.9169941 -2.2742569 -2.0166004 210.14
12.951023 -7.5195303 -0.69837874 210.14
4.1862378 -2.4305832 -2.0219288 210.14
12.830191 -7.4493732 -0.34444818 210.14
4.4322076 -2.5733967 -2.001292 210.14
13.312748 -7.7295523 0 210.14
4.6743469 -2.7139857 -1.9672998 210.14
28.897324 -16.778156 0.77579761 210.14
5.0091605 -2.9083829 -1.9571953 210.14
28.922108 -16.792547 1.5596131 210.14
5.3924494 -3.1309254 -1.9457178 210.14
28.926146 -16.794891 2.3389347 210.14
5.8556786 -3.3998818 -1.9415896 210.14
28.981621 -16.827101 3.1265566 210.14
6.2009459 -3.6003487 -1.8770998 210.14
28.912182 -16.786783 3.9096324 210.14
6.1698918 -3.5823183 -1.6904604 210.14
28.942385 -16.804319 4.7034941 210.14
28.942577 -16.804432 5.4984794 210.14
7.6996279 -4.4705029 -1.677478 210.14
28.944143 -16.80534 6.3059101 210.14
9.3255043 -5.4537525 -1.7748954 210.32001
10.091989 -5.9020085 -1.6430776 210.32001
11.639747 -6.8071704 -1.5768619 210.32001
12.672276 -7.4110155 -1.3695987 210.32001
12.894361 -7.540895 -1.0445335 210.32001
3.9098299 -2.2865512 -2.0166004 210.32001
12.5738 -7.3534245 -0.67927951 210.32001
4.1738019 -2.4409277 -2.0196164 210.32001
12.770479 -7.4684467 -0.34347335 210.32001
4.4273176 -2.5891891 -2.0027471 210.32001
13.364363 -7.815762 0 210.32001
4.6657972 -2.7286572 -1.9672998 210.32001
28.70812 -16.789116 0.77213031 210.32001
5.0081768 -2.9288881 -1.9603964 210.32001
28.734695 -16.804657 1.5523461 210.32001
5.380939 -3.1468871 -1.9451221 210.32001
28.732018 -16.803093 2.3274946 210.32001
5.849947 -3.4211729 -1.9432434 210.32001
28.796251 -16.840658 3.1122513 210.32001
6.3048453 -3.687207 -1.9120485 210.32001
28.723837 -16.798307 3.8912807 210.32001
6.2207642 -3.6380346 -1.7075219 210.32001
28.749258 -16.813175 4.6806698 210.32001
7.6228456 -4.4580016 -1.8770268 210.32001
28.76528 -16.822544 5.4748096 210.32001
7.6787591 -4.4907012 -1.6759968 210.32001
28.769051 -16.824749 6.2792482 210.32001
9.3085375 -5.4787717 -1.7745712 210.48
10.266633 -6.0426831 -1.6742524 210.48
11.617269 -6.8376331 -1.5763973 210.48
12.550278 -7.3867788 -1.3586375 210.48
12.715066 -7.4837689 -1.0316982 210.48
3.905004 -2.2983875 -2.0174139 210.48
12.926834 -7.6084108 -0.69949675 210.48
4.1701503 -2.4544458 -2.021158 210.48
12.541073 -7.381361 -0.33785632 210.48
4.4248867 -2.6043773 -2.0049295 210.48
13.4166 -7.8966746 0 210.48
4.6597791 -2.7426291 -1.967984 210.48
28.537058 -16.796196 0.76878792 210.48
5.0114088 -2.9495897 -1.9648781 210.48
28.556803 -16.807817 1.5452654 210.48
5.3490949 -3.1483431 -1.9367816 210.48
28.537113 -16.796228 2.3154964 210.48
5.8503118 -3.4433467 -1.946551 210.48
28.604954 -16.836159 3.0966456 210.48
6.0077271 -3.5359976 -1.82493 210.48
28.548418 -16.802883 3.873858 210.48
6.9736958 -4.1045423 -1.9173309 210.48
28.569063 -16.815033 4.6589589 210.48
7.6289124 -4.4901867 -1.8816009 210.48
28.573622 -16.817717 5.4472494 210.48
28.571205 -16.816296 6.2462912 210.48
10.261229 -6.0829864 -1.6764792 210.66
11.59573 -6.8740959 -1.5763973 210.66
12.554418 -7.4424181 -1.3616099 210.66
12.494126 -7.4066763 -1.0156542 210.66
3.9009075 -2.3125074 -2.0190406 210.66
12.306532 -7.2954679 -0.66716784 210.66
4.160831 -2.4665935 -2.0203872 210.66
12.433544 -7.3707623 -0.33558166 210.66
4.4166827 -2.6182656 -2.0049295 210.66
28.424728 -16.85054 0 210.66
4.6527567 -2.758213 -1.968668 210.66
28.343113 -16.802156 0.76498139 210.66
4.998858 -2.9633865 -1.9635977 210.66
28.362938 -16.81391 1.5376258 210.66
5.3670969 -3.1816833 -1.9469093 210.66
28.367502 -16.816614 2.3060095 210.66
5.8196201 -3.4499445 -1.9399357 210.66
28.435438 -16.856888 3.0840123 210.66
28.355371 -16.809423 3.8548093 210.66
6.137126 -3.6381662 -1.6904604 210.66
28.379801 -16.823906 4.6366911 210.66
7.6248655 -4.5201168 -1.8840958 210.66
28.389927 -16.829908 5.4222827 210.66
7.728056 -4.5812898 -1.6926605 210.66
28.394815 -16.832808 6.2192588 210.66
8.9996033 -5.3690991 -1.7217199 210.82001
10.273116 -6.1288676 -1.6812111 210.82001
11.564548 -6.8993263 -1.5747712 210.82001
12.653295 -7.5488653 -1.3746148 210.82001
12.898312 -7.6950407 -1.0502535 210.82001
3.8960037 -2.3243279 -2.0198541 210.82001
4.1586814 -2.4810398 -2.0226996 210.82001
12.421497 -7.4105768 -0.33581376 210.82001
4.4141536 -2.6334527 -2.0071118 210.82001
28.272791 -16.867346 0 210.82001
4.6450362 -2.7711952 -1.968668 210.82001
28.163866 -16.802361 0.7614069 210.82001
4.9954448 -2.9802465 -1.9655184 210.82001
28.187197 -16.81628 1.5306382 210.82001
5.3598309 -3.1976368 -1.9475051 210.82001
28.191927 -16.819101 2.2955461 210.82001
5.8198695 -3.4720924 -1.9432434 210.82001
28.246313 -16.851549 3.0685921 210.82001
28.171844 -16.807121 3.8362253 210.82001
6.970943 -4.1588144 -1.9233253 210.82001
28.201744 -16.824959 4.6152582 210.82001
7.6105332 -4.5403895 -1.8836799 210.82001
28.21401 -16.832277 5.3976402 210.82001
7.6004577 -4.5343785 -1.6674798 210.82001
28.217733 -16.834497 6.1907454 210.82001
9.0950785 -5.4670348 -1.743444 211.00999
10.274802 -6.1761651 -1.6848296 211.00999
11.539903 -6.9366145 -1.5745388 211.00999
12.65038 -7.6041207 -1.37703 211.00999
12.829974 -7.7120743 -1.0467657 211.00999
3.8867085 -2.3362935 -2.0190406 211.00999
12.758302 -7.668992 -0.69418621 211.00999
4.1441045 -2.4910135 -2.0196164 211.00999
12.342017 -7.4187641 -0.33432829 211.00999
4.4006066 -2.6451967 -2.0049295 211.00999
28.091568 -16.885792 0 211.00999
4.6181021 -2.775933 -1.9611435 211.00999
27.994888 -16.827677 0.7583431 211.00999
4.9757905 -2.9909387 -1.961677 211.00999
28.002855 -16.832466 1.5236508 211.00999
5.3475614 -3.2144094 -1.9469093 211.00999
28.012878 -16.838491 2.285501 211.00999
5.8149147 -3.4953346 -1.9454484 211.00999
28.069098 -16.872284 3.0554016 211.00999
6.3113914 -3.793766 -1.92775 211.00999
27.995073 -16.827789 3.819732 211.00999
6.9521093 -4.1789002 -1.921942 211.00999
28.016788 -16.840841 4.5941043 211.00999
7.5987883 -4.5676179 -1.8845116 211.00999
28.02441 -16.845423 5.3720255 211.00999
7.5078917 -4.51298 -1.6504458 211.00999
28.038782 -16.854061 6.1637135 211.00999
9.2739687 -5.6098804 -1.7807318 211.17
10.326995 -6.2468624 -1.6962417 211.17
11.503489 -6.9585314 -1.5722158 211.17
12.641023 -7.6466322 -1.3783306 211.17
12.774245 -7.7272191 -1.0439754 211.17
3.8739159 -2.3433554 -2.0157869 211.17
12.72829 -7.69942 -0.6937204 211.17
4.1323948 -2.4997108 -2.0173037 211.17
12.695919 -7.6798391 -0.34449461 211.17
4.3947964 -2.6584394 -2.005657 211.17
4.6424937 -2.8082728 -1.9748243 211.17
27.816055 -16.826101 0.75476861 211.17
4.9771461 -3.0107062 -1.9655184 211.17
27.827534 -16.833046 1.5166632 211.17
5.3385644 -3.2293301 -1.9469093 211.17
27.841129 -16.841269 2.2753167 211.17
5.7952609 -3.5055888 -1.9421408 211.17
27.899193 -16.876392 3.0420251 211.17
