# .PCD v0.7 - Point Cloud Data file format
VERSION 0.7
FIELDS x y z intensity
SIZE 4 4 4 4
TYPE F F F F
COUNT 1 1 1 1
WIDTH 1162
HEIGHT 1
VIEWPOINT 0 0 0 1 0 0 0
POINTS 1162
DATA ascii
-12.398442 -10.057987 -2.2437487 320.95001
-14.322245 -11.618633 -2.1566861 320.95001
-22.570835 -18.310139 -2.7115157 320.95001
-22.774769 -18.475576 -2.0507009 320.95001
-3.6579561 -2.9674437 -2.0971341 320.95001
-23.522394 -19.082071 -1.4125026 320.95001
-3.8954194 -3.1600809 -2.0951591 320.95001
-23.538509 -19.095144 -0.70370489 320.95001
-4.1769133 -3.3884373 -2.100229 320.95001
-23.516895 -19.07761 0 320.95001
-4.4836578 -3.6372774 -2.1013718 320.95001
-36.039898 -29.236645 1.077445 320.95001
-4.8749499 -3.9547055 -2.1210952 320.95001
-36.067879 -29.259344 2.1658499 320.95001
-5.3094974 -4.3072233 -2.133379 320.95001
-36.085747 -29.273838 3.2492566 320.95001
-5.870574 -4.7623854 -2.1676121 320.95001
-36.152 -29.327585 4.3430696 320.95001
-6.5226111 -5.291338 -2.198729 320.95001
-43.657852 -35.416557 6.5741296 320.95001
-7.3496819 -5.9622822 -2.2424195 320.95001
-8.3376551 -6.7637553 -2.2820387 320.95001
-36.230213 -29.391033 7.6647339 320.95001
-9.5884562 -7.7784429 -2.326251 320.95001
-11.261379 -9.0738144 -2.3760383 321.14001
-12.428643 -10.014333 -2.243192 321.14001
-14.424114 -11.622176 -2.1662104 321.14001
-22.546146 -18.166471 -2.7012975 321.14001
-23.079823 -18.596479 -2.0726044 321.14001
-3.6663537 -2.9541507 -2.0963206 321.14001
-23.512428 -18.945051 -1.4081239 321.14001
-3.9087512 -3.1494617 -2.0967009 321.14001
-23.526968 -18.956766 -0.70147663 321.14001
-4.1924791 -3.3780742 -2.1024115 321.14001
-23.531752 -18.960621 0 321.14001
-4.5030117 -3.6282849 -2.1047919 321.14001
-43.7719 -35.269043 1.3050965 321.14001
-4.8880372 -3.9385178 -2.1210952 321.14001
-36.317165 -29.262419 2.1749802 321.14001
-5.3296981 -4.2943845 -2.135762 321.14001
-5.8863344 -4.7428918 -2.1676121 321.14001
-43.856441 -35.337162 5.2545252 321.14001
-6.544642 -5.2733207 -2.2002485 321.14001
-43.883335 -35.358833 6.5903907 321.14001
-7.3709283 -5.9390979 -2.2428806 321.14001
-8.3630848 -6.7385244 -2.2828703 321.14001
-36.442734 -29.363596 7.6890516 321.14001
-9.6096058 -7.7429042 -2.32514 321.14001
-11.272813 -9.0312262 -2.3731201 321.29999
-12.451922 -9.9758711 -2.242357 321.29999
-14.355743 -11.50112 -2.1511109 321.29999
-22.439823 -17.977688 -2.6825333 321.29999
-23.502243 -18.828848 -2.1058085 321.29999
-3.6760149 -2.9450433 -2.0971341 321.29999
-23.521584 -18.844341 -1.4055152 321.29999
-3.9132102 -3.1350725 -2.0943882 321.29999
-23.551725 -18.86849 -0.70064104 321.29999
-4.1960802 -3.3616941 -2.0995016 321.29999
-23.519051 -18.842312 0 321.29999
-4.5116596 -3.614521 -2.1041079 321.29999
-44.026264 -35.271687 1.3097388 321.29999
-4.896059 -3.9224832 -2.1198146 321.29999
-36.517235 -29.255821 2.182061 321.29999
-5.3401794 -4.2782907 -2.1351662 321.29999
-5.9055576 -4.7312436 -2.1698172 321.29999
-44.108807 -35.337818 5.2729177 321.29999
-6.5593424 -5.255024 -2.2002485 321.29999
-44.141586 -35.364079 6.6143179 321.29999
-7.3905225 -5.9209251 -2.2438028 321.29999
-38.327995 -30.706514 6.9021506 321.29999
-8.3772898 -6.7114744 -2.2816229 321.29999
-36.66013 -29.370302 7.7175851 321.29999
-9.6373262 -7.7209544 -2.3266213 321.29999
-11.273314 -8.97684 -2.3676081 321.47
-12.483016 -9.940115 -2.2426353 321.47
-14.464396 -11.517871 -2.1622615 321.47
-14.54673 -11.583433 -1.7348498 321.47
-23.515865 -18.725475 -2.1020415 321.47
-3.6818781 -2.9318471 -2.0955071 321.47
-23.59771 -18.790648 -1.4067264 321.47
-3.9239385 -3.1245975 -2.0951591 321.47
-23.604477 -18.796038 -0.70054817 321.47
-4.2060361 -3.3492293 -2.0995016 321.47
-23.576418 -18.773693 0 321.47
-4.5238342 -3.6022894 -2.1047919 321.47
-4.9047112 -3.9055784 -2.1185343 321.47
-5.3588243 -4.2671843 -2.1375492 321.47
-5.9180655 -4.7125034 -2.169266 321.47
-6.5764189 -5.2367444 -2.2007551 321.47
-44.389286 -35.346794 6.6356893 321.47
-7.4126248 -5.9026074 -2.2451861 321.47
-38.598656 -30.735769 6.9344387 321.47
-8.3986969 -6.6878076 -2.2820387 321.47
-36.944725 -29.418758 7.759088 321.47
-9.6586552 -7.6911016 -2.326251 321.47
-11.270496 -8.9200811 -2.3614473 321.64001
-12.507795 -9.8993464 -2.2418003 321.64001
-14.517198 -11.489697 -2.1650491 321.64001
-14.568543 -11.530334 -1.7333635 321.64001
-3.6934261 -2.9231775 -2.0971341 321.64001
-3.9375334 -3.1163771 -2.0974717 321.64001
-4.2203374 -3.3402035 -2.1016841 321.64001
-4.5330291 -3.5876846 -2.1041079 321.64001
-4.9192495 -3.8933604 -2.1198146 321.64001
-5.3699646 -4.2500806 -2.1369534 321.64001
-5.9335294 -4.6961164 -2.1698172 321.64001
-6.5919275 -5.2172089 -2.2007551 321.64001
-7.4331574 -5.8830037 -2.2461083 321.64001
-37.100971 -29.363718 6.6496906 321.64001
-8.4154348 -6.6604309 -2.2812071 321.64001
-37.106133 -29.367802 7.7746515 321.64001
-9.6983843 -7.675827 -2.3303242 321.64001
-11.268988 -8.8614511 -2.3552868 321.82001
-12.541946 -9.8624516 -2.242357 321.82001
-14.470463 -11.378954 -2.1527371 321.82001
-14.593738 -11.475892 -1.7320631 321.82001
-23.029148 -18.10914 -2.0486081 321.82001
-3.7054639 -2.9138186 -2.0987611 321.82001
-3.9458537 -3.1028509 -2.0967009 321.82001
-4.2278814 -3.3246255 -2.100229 321.82001
-23.093245 -18.159542 0 321.82001
-4.5442777 -3.573426 -2.1041079 321.82001
-23.094881 -18.16083 0.68211883 321.82001
-4.9344354 -3.8802295 -2.1210952 321.82001
-5.3862915 -4.2355499 -2.138145 321.82001
-23.127953 -18.186834 2.0573974 321.82001
-5.9482532 -4.6774526 -2.1698172 321.82001
-23.209412 -18.250891 2.7546175 321.82001
-6.6113272 -5.1988659 -2.2017682 321.82001
-23.21801 -18.257652 3.4540894 321.82001
-7.4500732 -5.8584194 -2.2456472 321.82001
-8.439393 -6.6363788 -2.2820387 321.82001
-37.353344 -29.373075 7.8070755 321.82001
-9.7193613 -7.6428909 -2.3295836 321.82001
-11.274999 -8.8089943 -2.3507476 322
-12.568187 -9.8193436 -2.2415221 322
-14.504574 -11.332215 -2.1525047 322
-14.471228 -11.306162 -1.7132988 322
-3.705961 -2.8954141 -2.0938802 322
-3.949765 -3.0858946 -2.0936174 322
-4.2383051 -3.3113267 -2.100229 322
-4.5525193 -3.556818 -2.1027398 322
-4.9540663 -3.8705409 -2.1242964 322
-5.3995714 -4.2186074 -2.138145 322
-5.9674635 -4.6622934 -2.1714711 322
-6.6291518 -5.1792612 -2.2022746 322
-45.190216 -35.306465 6.7063088 322
-7.4730415 -5.8385801 -2.2470305 322
-8.4679079 -6.6158547 -2.2841179 322
-37.585403 -29.364935 7.8362575 322
-9.7433243 -7.612319 -2.3295836 322
-11.271469 -8.7525043 -2.3445868 322.17001
-12.600394 -9.7844391 -2.2420785 322.17001
-14.561667 -11.307405 -2.1559892 322.17001
-14.787821 -11.483016 -1.74674 322.17001
-3.7159786 -2.8855262 -2.0946937 322.17001
-3.9618189 -3.0764256 -2.0951591 322.17001
-23.582827 -18.312502 -0.69321358 322.17001
-4.2466397 -3.2975943 -2.0995016 322.17001
-4.5660214 -3.5456002 -2.1041079 322.17001
-4.9565496 -3.8488524 -2.120455 322.17001
-5.4105563 -4.2013969 -2.1375492 322.17001
-5.9843073 -4.6469254 -2.1725736 322.17001
-6.6490746 -5.1631293 -2.203794 322.17001
-23.627213 -18.346968 3.4982266 322.17001
-7.4903321 -5.8163815 -2.2470305 322.17001
-8.493681 -6.5955005 -2.2857811 322.17001
-37.840714 -29.384012 7.8712754 322.17001
-9.7674198 -7.5845819 -2.3299539 322.17001
-11.270873 -8.7016973 -2.3393991 322.32999
-12.630804 -9.7516346 -2.2426353 322.32999
-14.68124 -11.334678 -2.1689982 322.32999
-23.404045 -18.069136 -2.7585189 322.32999
-23.495798 -18.139973 -2.0756736 322.32999
-3.7240222 -2.8751378 -2.0946937 322.32999
-23.529184 -18.165749 -1.3862296 322.32999
-3.9703944 -3.0653503 -2.0951591 322.32999
-23.551575 -18.183035 -0.69079965 322.32999
-4.2558317 -3.2857225 -2.0995016 322.32999
-23.510429 -18.151268 0 322.32999
-4.5788803 -3.5351326 -2.1054759 322.32999
-41.753757 -32.236061 1.2246944 322.32999
-4.9687781 -3.836154 -2.1210952 322.32999
-5.423779 -4.1874385 -2.138145 322.32999
-5.9972606 -4.6301956 -2.1725736 322.32999
-6.6634669 -5.1445413 -2.203794 322.32999
-45.598797 -35.204632 6.7367406 322.32999
-7.5111666 -5.7990098 -2.2484138 322.32999
-8.5074205 -6.5681691 -2.2845337 322.32999
-9.7978964 -7.5644832 -2.3321757 322.32999
-11.268402 -8.643424 -2.3332384 322.51001
-12.656663 -9.7082891 -2.2418003 322.51001
-14.601715 -11.200242 -2.1520402 322.51001
-14.239479 -10.922389 -1.6742842 322.51001
-23.506762 -18.030855 -2.0716279 322.51001
-3.7330363 -2.8634243 -2.0946937 322.51001
-23.52273 -18.043102 -1.3825029 322.51001
-3.9829335 -3.0551081 -2.0967009 322.51001
-23.557814 -18.070015 -0.68931419 322.51001
-4.2676115 -3.2734702 -2.100229 322.51001
-23.510208 -18.033499 0 322.51001
-4.5854897 -3.5172987 -2.1034238 322.51001
-38.124981 -29.243755 1.1155572 322.51001
-4.9808049 -3.8205252 -2.1210952 322.51001
-38.117634 -29.238119 2.2402902 322.51001
-5.4444818 -4.1761885 -2.1411238 322.51001
-38.127842 -29.245953 3.3601694 322.51001
-6.0117769 -4.6113319 -2.1725736 322.51001
-38.169453 -29.277868 4.4879808 322.51001
-6.6795959 -5.1235824 -2.203794 322.51001
-7.5339804 -5.7789373 -2.2497973 322.51001
-38.271709 -29.356306 6.7788434 322.51001
-8.5311174 -6.5437913 -2.2853653 322.51001
-9.8106956 -7.5252914 -2.3295836 322.51001
-11.268886 -8.5908089 -2.3280506 322.67999
-12.693287 -9.6766977 -2.243192 322.67999
-14.675957 -11.188181 -2.1580799 322.67999
-14.960711 -11.405262 -1.7551003 322.67999
-23.526836 -17.935629 -2.0686979 322.67999
-3.7400627 -2.851228 -2.0938802 322.67999
-23.515787 -17.927204 -1.3789626 322.67999
-3.9861102 -3.0388017 -2.0936174 322.67999
-23.566803 -17.966097 -0.68801439 322.67999
-4.2787867 -3.2619231 -2.1009564 322.67999
-23.539753 -17.945475 0 322.67999
-4.6003895 -3.5070961 -2.1054759 322.67999
-41.813145 -31.876154 1.2207021 322.67999
-5.0026665 -3.813771 -2.1255767 322.67999
-38.355152 -29.23996 2.249141 322.67999
-5.4538121 -4.157701 -2.1399322 322.67999
-6.0254326 -4.5934744 -2.1725736 322.67999
-6.6932297 -5.1025681 -2.2032876 322.67999
-45.609207 -34.770073 6.7067738 322.67999
-7.547998 -5.7541986 -2.2488751 322.67999
-38.503548 -29.35309 6.8044515 322.67999
-8.5582743 -6.5243802 -2.2874444 322.67999
-9.8376694 -7.4997244 -2.3306947 322.67999
-11.277022 -8.5442257 -2.3244839 322.85001
-12.717207 -9.6354055 -2.242357 322.85001
-15.247418 -11.552463 -2.2370625 322.85001
-23.495644 -17.801868 -2.7501585 322.85001
-23.538603 -17.834417 -2.0650706 322.85001
-3.7470496 -2.839015 -2.0930667 322.85001
-23.521103 -17.821157 -1.3761675 322.85001
-3.9965799 -3.0280757 -2.0943882 322.85001
-23.554665 -17.846586 -0.68611109 322.85001
-4.2899313 -3.2503383 -2.1016841 322.85001
-23.532318 -17.829655 0 322.85001
-4.610775 -3.4934311 -2.1054759 322.85001
-41.788013 -31.66139 1.2172204 322.85001
-5.0079193 -3.7943342 -2.1230159 322.85001
-38.573906 -29.226168 2.2568738 322.85001
-5.4676461 -4.1426539 -2.140528 322.85001
-6.0436325 -4.5790596 -2.1742275 322.85001
-6.7160506 -5.0885286 -2.2058201 322.85001
-45.612423 -34.559017 6.6921387 322.85001
-7.5650377 -5.7317781 -2.2488751 322.85001
-8.572917 -6.4954147 -2.2861969 322.85001
-9.8598785 -7.4705024 -2.3306947 322.85001
-11.275522 -8.4905462 -2.3189719 323.01999
-12.74574 -9.5976295 -2.242357 323.01999
-15.479988 -11.656538 -2.2661002 323.01999
-23.492683 -17.690153 -2.7436562 323.01999
-23.537226 -17.723694 -2.0603273 323.01999
-3.7569163 -2.8289838 -2.0938802 323.01999
-23.527592 -17.71644 -1.3734658 323.01999
-4.007021 -3.0173144 -2.0951591 323.01999
-23.546816 -17.730915 -0.68434709 323.01999
-4.2936034 -3.2331128 -2.0987742 323.01999
-23.524403 -17.714039 0 323.01999
-4.6226211 -3.4808657 -2.1061599 323.01999
-41.787533 -31.466301 1.2144816 323.01999
-5.0297508 -3.787437 -2.1274974 323.01999
-38.804089 -29.219748 2.2652588 323.01999
-5.4799137 -4.1264129 -2.140528 323.01999
-6.0571923 -4.5611076 -2.1742275 323.01999
-6.7295732 -5.0674152 -2.2053137 323.01999
-45.605267 -34.34108 6.6761098 323.01999
-7.5928936 -5.7175016 -2.2521029 323.01999
-38.90963 -29.299219 6.8453679 323.01999
-8.5968399 -6.4734802 -2.2874444 323.01999
-9.8882809 -7.4459438 -2.3321757 323.01999
-11.280017 -8.4385309 -2.3144324 323.20001
-12.775828 -9.5575409 -2.242357 323.20001
-23.511467 -17.588825 -2.7393832 323.20001
-23.541668 -17.611418 -2.0558629 323.20001
-3.7687113 -2.8193562 -2.0955071 323.20001
-23.530344 -17.602945 -1.3703912 323.20001
-4.0179582 -3.0058167 -2.0959301 323.20001
-23.560776 -17.625713 -0.6831401 323.20001
-4.3037391 -3.2196083 -2.0987742 323.20001
-23.533495 -17.605303 0 323.20001
-4.6305242 -3.4640746 -2.1047919 323.20001
-39.10519 -29.254419 1.1338474 323.20001
-5.0294867 -3.7625368 -2.1223757 323.20001
-39.114857 -29.261652 2.2780228 323.20001
-5.494379 -4.1103206 -2.1411238 323.20001
-39.122688 -29.267509 3.4165325 323.20001
-6.0730309 -4.5432076 -2.1747787 323.20001
-39.134754 -29.276537 4.5596933 323.20001
-6.7532063 -5.0520439 -2.2078462 323.20001
-39.173874 -29.305801 5.7211189 323.20001
-7.6061435 -5.6901221 -2.2507195 323.20001
-8.6155682 -6.4452686 -2.2870286 323.20001
-9.9147711 -7.4171968 -2.3329165 323.20001
-11.278081 -8.3850079 -2.3089204 323.37
-12.80413 -9.5195923 -2.242357 323.37
-23.507618 -17.477404 -2.7328808 323.37
-23.539381 -17.501019 -2.0511193 323.37
-3.7785261 -2.809252 -2.0963206 323.37
-23.521544 -17.487757 -1.3668509 323.37
-4.0253778 -2.9927809 -2.0951591 323.37
-23.566437 -17.521133 -0.68179387 323.37
-4.3147678 -3.207936 -2.0995016 323.37
-23.534267 -17.497215 0 323.37
-4.6422901 -3.4514418 -2.1054759 323.37
-41.820114 -31.092346 1.2098858 323.37
-5.0406284 -3.7475975 -2.1223757 323.37
-39.345798 -29.252747 2.2864077 323.37
-5.5096145 -4.0962787 -2.1423151 323.37
-6.088027 -4.5263157 -2.1753299 323.37
-6.7666135 -5.0308299 -2.2073395 323.37
-45.618111 -33.916073 6.6475368 323.37
-7.6229925 -5.6675291 -2.2507195 323.37
-39.439137 -29.32214 6.9068828 323.37
-8.6425037 -6.4255133 -2.2891078 323.37
-9.9367352 -7.3877463 -2.3329165 323.37
-11.274339 -8.3303976 -2.3030841 323.54001
-12.82754 -9.4780293 -2.2415221 323.54001
-15.535613 -11.478972 -2.2588987 323.54001
-23.509722 -17.370893 -2.7271214 323.54001
-23.533438 -17.388416 -2.0460968 323.54001
-3.7868447 -2.7980285 -2.0963206 323.54001
-23.515484 -17.375149 -1.3634969 323.54001
-4.0312715 -2.9786308 -2.0936174 323.54001
-23.54917 -17.40004 -0.67979777 323.54001
-4.3257656 -3.1962271 -2.100229 323.54001
-23.547474 -17.398787 0 323.54001
-4.6540217 -3.4387693 -2.1061599 323.54001
-41.814091 -30.895647 1.2070541 323.54001
-5.0623927 -3.7405071 -2.1268573 323.54001
-39.535255 -29.211859 2.2923703 323.54001
-5.5217443 -4.0799131 -2.1423151 323.54001
-6.1029763 -4.5093746 -2.1758814 323.54001
-47.807426 -35.324013 5.5456486 323.54001
-6.7830667 -5.0118809 -2.2078462 323.54001
-45.603508 -33.69558 6.6308112 323.54001
-7.6397748 -5.6448865 -2.2507195 323.54001
-39.747375 -29.368589 6.9455729 323.54001
-8.6615305 -6.3998423 -2.2891078 323.54001
-9.9744186 -7.3699107 -2.3366194 323.54001
-11.27529 -8.2825241 -2.2985446 323.70001
-12.850765 -9.439826 -2.2409654 323.70001
-15.950233 -11.716612 -2.3144188 323.70001
-23.497154 -17.260376 -2.7200615 323.70001
-23.519194 -17.276566 -2.0406559 323.70001
-3.7916985 -2.7852795 -2.0946937 323.70001
-23.53171 -17.285759 -1.3616335 323.70001
-4.0410609 -2.9684544 -2.0943882 323.70001
-23.547714 -17.297516 -0.67835867 323.70001
-4.3331728 -3.1830318 -2.0995016 323.70001
-23.54439 -17.295073 0 323.70001
-4.6620917 -3.4246469 -2.1054759 323.70001
-40.354851 -29.643583 1.1625359 323.70001
-5.0697646 -3.7241123 -2.1255767 323.70001
-5.5361934 -4.0667381 -2.1435068 323.70001
-40.351006 -29.640762 3.5010774 323.70001
-6.1186438 -4.4945908 -2.1769838 323.70001
-40.41748 -29.68959 4.678781 323.70001
-6.8001547 -4.9952102 -2.2088592 323.70001
-40.42551 -29.69549 5.8658423 323.70001
-7.668056 -5.6327472 -2.2544084 323.70001
-8.679368 -6.3756299 -2.2891078 323.70001
-9.9807043 -7.3315563 -2.3332868 323.70001
-11.277342 -8.2296104 -2.2936811 323.88
-12.877158 -9.3970718 -2.2404087 323.88
-16.022266 -11.692206 -2.3195295 323.88
-23.512657 -17.158298 -2.7156029 323.88
-23.537899 -17.17672 -2.0375867 323.88
-3.8004298 -2.7733538 -2.0946937 323.88
-23.531029 -17.171707 -1.3584659 323.88
-4.0518575 -2.9568322 -2.0951591 323.88
-23.563177 -17.195166 -0.67724454 323.88
-4.344656 -3.1705012 -2.100229 323.88
-23.554987 -17.18919 0 323.88
-4.6697912 -3.407768 -2.1041079 323.88
-40.179665 -29.321005 1.1548299 323.88
-5.0890918 -3.7137513 -2.128778 323.88
-40.071014 -29.241716 2.313333 323.88
-5.5427728 -4.0448241 -2.1411238 323.88
-40.121601 -29.278633 3.4731748 323.88
-6.1296277 -4.4730797 -2.1758814 323.88
-40.174358 -29.317133 4.6399522 323.88
-6.8189397 -4.9761033 -2.2098722 323.88
-40.138302 -29.290821 5.8107872 323.88
-7.6872859 -5.609777 -2.2548695 323.88
-40.106533 -29.267637 6.9778609 323.88
-8.6993551 -6.3483315 -2.2891078 323.88
-10.010038 -7.3047991 -2.3347678 323.88
-11.276148 -8.1775761 -2.2884932 324.04999
-12.901776 -9.3564978 -2.239852 324.04999
-14.530799 -10.537882 -2.0990753 324.04999
-23.505428 -17.046373 -2.7089145 324.04999
-23.540306 -17.071667 -2.0334013 324.04999
-3.8056836 -2.7599201 -2.0930667 324.04999
-23.525269 -17.060762 -1.3552051 324.04999
-4.0546365 -2.9404633 -2.0920758 324.04999
-23.544491 -17.074701 -0.67524844 324.04999
-4.3525357 -3.1565027 -2.0995016 324.04999
-23.537884 -17.06991 0 324.04999
-4.6890101 -3.4005175 -2.1082122 324.04999
-39.933048 -28.959848 1.145267 324.04999
-5.0924191 -3.6930735 -2.1255767 324.04999
-39.942497 -28.966702 2.3009417 324.04999
-5.564023 -4.0350857 -2.1446981 324.04999
-39.959568 -28.97908 3.4516897 324.04999
-6.1459851 -4.4571304 -2.1769838 324.04999
-39.991955 -29.002567 4.6089263 324.04999
-6.8383727 -4.9592566 -2.2113917 324.04999
-39.993465 -29.003664 5.7773356 324.04999
-7.7054725 -5.5880861 -2.2553308 324.04999
-40.028053 -29.028748 6.9491911 324.04999
-8.7197361 -6.3236403 -2.2895236 324.04999
-10.030077 -7.2739129 -2.3343976 324.04999
-11.274744 -8.1256208 -2.2833054 324.22
-12.926268 -9.3158607 -2.2392952 324.22
-14.611959 -10.530726 -2.1062768 324.22
-23.521976 -16.952106 -2.705013 324.22
-23.545534 -16.969084 -2.0294948 324.22
-3.8153381 -2.7496846 -2.0938802 324.22
-23.530405 -16.958179 -1.3525964 324.22
-4.0663376 -2.930578 -2.0936174 324.22
-23.557741 -16.97788 -0.67418075 324.22
-4.3649049 -3.1457531 -2.1009564 324.22
-23.547863 -16.970762 0 324.22
-4.6975546 -3.3854911 -2.1075282 324.22
-39.924717 -28.773434 1.1425745 324.22
-5.1002798 -3.6757321 -2.1242964 324.22
-39.937504 -28.78265 2.2957244 324.22
-5.5744224 -4.0174427 -2.1441023 324.22
-39.974155 -28.809065 3.4455512 324.22
-6.162302 -4.4411235 -2.1780863 324.22
-39.979282 -28.812759 4.5975933 324.22
-6.8514876 -4.9378138 -2.210885 324.22
-39.984264 -28.816349 5.7636299 324.22
-7.7251763 -5.5674744 -2.256253 324.22
-40.007961 -28.833429 6.9308205 324.22
-8.7432213 -6.3011718 -2.290771 324.22
-10.054804 -7.2464194 -2.3351383 324.22
-11.274541 -8.0717783 -2.2781174 324.39999
-12.960301 -9.2786646 -2.2401302 324.39999
-14.596515 -10.450078 -2.0993078 324.39999
-23.58807 -16.8874 -2.7064993 324.39999
-23.629551 -16.917097 -2.0321455 324.39999
-3.8224721 -2.7366211 -2.0930667 324.39999
-23.606306 -16.900455 -1.3539007 324.39999
-4.0770249 -2.9188631 -2.0943882 324.39999
-23.628845 -16.916592 -0.67469138 324.39999
-4.3702216 -3.1287713 -2.0987742 324.39999
-23.612446 -16.904852 0 324.39999
-4.7020545 -3.3663406 -2.1047919 324.39999
-39.930374 -28.587341 1.1401607 324.39999
-5.1210461 -3.6663089 -2.1281378 324.39999
-39.949757 -28.601217 2.2912524 324.39999
-5.5885682 -4.0010219 -2.1446981 324.39999
-39.970375 -28.615978 3.4374595 324.39999
-6.1746607 -4.4206228 -2.1775351 324.39999
-39.98217 -28.624422 4.5875611 324.39999
-6.8685393 -4.9173913 -2.2113917 324.39999
-40.018066 -28.65012 5.7554994 324.39999
-7.7426286 -5.5431776 -2.256253 324.39999
-40.012997 -28.646494 6.9160681 324.39999
-8.7613831 -6.2725344 -2.2903552 324.39999
-40.011303 -28.645279 8.0846262 324.39999
-10.080716 -7.2170835 -2.3358788 324.39999
-11.275928 -8.022274 -2.2735782 324.57001
-12.986161 -9.2390213 -2.239852 324.57001
-14.656591 -10.427452 -2.1034892 324.57001
-23.732183 -16.884295 -2.7172749 324.57001
-23.778807 -16.917463 -2.0406559 324.57001
-3.8335524 -2.727386 -2.0946937 324.57001
-23.765415 -16.907936 -1.3601429 324.57001
-4.0811563 -2.9035439 -2.0920758 324.57001
-23.794607 -16.928705 -0.67798728 324.57001
-4.3840399 -3.119031 -2.1009564 324.57001
-23.792871 -16.927471 0 324.57001
-4.7181478 -3.3567324 -2.1075282 324.57001
-39.931931 -28.409626 1.1377932 324.57001
-5.1241822 -3.6456063 -2.1249366 324.57001
-40.063744 -28.503405 2.2929294 324.57001
-5.5988593 -3.9833159 -2.1441023 324.57001
-39.946186 -28.419767 3.428112 324.57001
-6.186183 -4.4011683 -2.1769838 324.57001
-39.987415 -28.4491 4.5784578 324.57001
-6.884676 -4.8981118 -2.2118981 324.57001
-40.114227 -28.53932 5.7571254 324.57001
-7.7590418 -5.5201807 -2.256253 324.57001
-40.021969 -28.473684 6.9029856 324.57001
-8.7847376 -6.2499137 -2.2916026 324.57001
-40.02858 -28.478386 8.0710077 324.57001
-10.100483 -7.1860023 -2.3355086 324.57001
-11.277339 -7.9759398 -2.2693629 324.73001
-13.003825 -9.1970034 -2.2384601 324.73001
-14.737552 -10.423187 -2.1109228 324.73001
-15.108744 -10.685715 -1.7264895 324.73001
-23.918804 -16.916662 -2.0486081 324.73001
-3.8366785 -2.713505 -2.0922532 324.73001
-23.923452 -16.91995 -1.3664782 324.73001
-4.0892482 -2.8921359 -2.0920758 324.73001
-23.938103 -16.930311 -0.68072617 324.73001
-4.3896904 -3.1046247 -2.0995016 324.73001
-23.941288 -16.932564 0 324.73001
-4.7290373 -3.344629 -2.1082122 324.73001
-39.914795 -28.229885 1.1350542 324.73001
-5.1358895 -3.6323767 -2.1255767 324.73001
-5.6177545 -3.9731774 -2.1470811 324.73001
-39.95372 -28.257416 3.4219735 324.73001
-6.2031584 -4.3872066 -2.1786377 324.73001
-39.969154 -28.268332 4.5673108 324.73001
-6.9014864 -4.8811016 -2.2129111 324.73001
-40.261883 -28.475365 5.7668819 324.73001
-7.7807822 -5.5029869 -2.2580974 324.73001
-40.010777 -28.297768 6.8873982 324.73001
-8.8037539 -6.2264872 -2.2920184 324.73001
-40.004826 -28.29356 8.0502567 324.73001
-10.138163 -7.1702523 -2.339582 324.73001
-11.273273 -7.9200501 -2.2635267 324.91
-13.027793 -9.1526899 -2.2376251 324.91
-14.624083 -10.274164 -1.6674103 324.91
-24.089373 -16.924013 -2.0586531 324.91
-3.8466794 -2.7024887 -2.0930667 324.91
-24.074574 -16.913618 -1.3720683 324.91
-4.1073747 -2.8856404 -2.0967009 324.91
-24.099154 -16.930885 -0.68379003 324.91
-4.3963733 -3.0886769 -2.0980465 324.91
-24.0991 -16.930849 0 324.91
-4.7395215 -3.3297558 -2.1082122 324.91
-39.9133 -28.041132 1.1325011 324.91
-5.1596789 -3.6249378 -2.1306987 324.91
-40.335167 -28.337515 2.298799 324.91
-5.6255221 -3.9522166 -2.145294 324.91
-39.95414 -28.069824 3.4144399 324.91
-6.2121911 -4.3643813 -2.1769838 324.91
-39.977924 -28.086533 4.558207 324.91
-6.9167867 -4.859396 -2.2129111 324.91
-40.438915 -28.410402 5.7794266 324.91
-7.8012166 -5.4807529 -2.2590196 324.91
-40.018452 -28.115004 6.8734813 324.91
-8.8216705 -6.1976743 -2.2916026 324.91
-40.009544 -28.108747 8.0333958 324.91
-10.154205 -7.1338477 -2.3381007 324.91
-11.270832 -7.8684916 -2.2583387 325.07999
-13.054893 -9.1139956 -2.2376251 325.07999
-14.742311 -10.292031 -2.10256 325.07999
-15.240682 -10.639958 -1.7341067 325.07999
-24.24745 -16.927841 -2.0678608 325.07999
-3.856179 -2.6921093 -2.0938802 325.07999
-24.237682 -16.921022 -1.3784968 325.07999
-4.1083522 -2.8681588 -2.0928466 325.07999
-24.255846 -16.933702 -0.68680739 325.07999
-4.4070458 -3.0766854 -2.0987742 325.07999
-24.255823 -16.933687 0 325.07999
-4.7524624 -3.3178303 -2.1095803 325.07999
-39.915993 -27.866501 1.1302264 325.07999
-5.1704116 -3.6096127 -2.1306987 325.07999
-41.804924 -29.185219 2.3776181 325.07999
-5.6466169 -3.9420655 -2.1488683 325.07999
-39.958725 -27.896334 3.4077432 325.07999
-6.232995 -4.3514328 -2.1797402 325.07999
-39.981075 -27.911936 4.5491037 325.07999
-6.9343472 -4.8410673 -2.2139242 325.07999
-41.943348 -29.281857 5.9819932 325.07999
-7.8190398 -5.4586964 -2.2594807 325.07999
-40.002632 -27.926987 6.8565021 325.07999
-8.8416252 -6.1725922 -2.2920184 325.07999
-39.997292 -27.92326 8.014266 325.07999
-10.172104 -7.101438 -2.3373601 325.07999
-11.269547 -7.8150501 -2.2531509 325.26001
-13.085088 -9.0740662 -2.2379034 325.26001
-14.557467 -10.095111 -2.0716639 325.26001
-15.133304 -10.494434 -1.7181293 325.26001
-24.395601 -16.917524 -2.0759528 325.26001
-3.8556092 -2.6737344 -2.0889995 325.26001
-24.402357 -16.922209 -1.3848321 325.26001
-4.1173425 -2.855238 -2.0928466 325.26001
-24.432154 -16.942873 -0.69028902 325.26001
-4.4151587 -3.0617635 -2.0980465 325.26001
-24.404224 -16.923504 0 325.26001
-4.7566843 -3.2986 -2.1068442 325.26001
-39.91626 -27.680574 1.1277661 325.26001
-5.1708269 -3.5857935 -2.1262171 325.26001
-42.050724 -29.160757 2.3863759 325.26001
-5.6558356 -3.9221306 -2.1476769 325.26001
-39.951077 -27.704721 3.3996515 325.26001
-6.2450547 -4.3307343 -2.179189 325.26001
-39.986744 -27.729456 4.5398145 325.26001
-6.9495215 -4.8192582 -2.2139242 325.26001
-42.213062 -29.273331 6.0073142 325.26001
-7.8345509 -5.4329963 -2.2590196 325.26001
-40.013676 -27.748133 6.8434196 325.26001
-8.867403 -6.1492443 -2.2936819 325.26001
-39.997246 -27.736736 7.9967566 325.26001
-10.205669 -7.0772867 -2.3399522 325.26001
-11.273454 -7.7712283 -2.2495842 325.42001
-13.115268 -9.0408621 -2.2387385 325.42001
-14.744246 -10.16378 -2.094197 325.42001
-15.213377 -10.48717 -1.7238885 325.42001
-24.56102 -16.930862 -2.0859976 325.42001
-3.8705821 -2.6681421 -2.0930667 325.42001
-24.553144 -16.925434 -1.3907017 325.42001
-4.1252999 -2.843729 -2.0928466 325.42001
-24.586376 -16.948341 -0.69330645 325.42001
-4.4236917 -3.049422 -2.0980465 325.42001
-24.56501 -16.933613 0 325.42001
-4.7705193 -3.2885039 -2.1088963 325.42001
-39.917675 -27.5168 1.1256307 325.42001
-5.19174 -3.5788677 -2.1306987 325.42001
-42.340893 -29.187218 2.3982079 325.42001
-5.66991 -3.9084885 -2.1488683 325.42001
-39.936298 -27.529636 3.3918388 325.42001
-6.2571244 -4.3132782 -2.179189 325.42001
-39.983685 -27.562304 4.5307112 325.42001
-6.9661384 -4.8020291 -2.2149372 325.42001
-42.487637 -29.288374 6.0347257 325.42001
-7.8561015 -5.4155149 -2.260864 325.42001
-39.985016 -27.563221 6.8253274 325.42001
-8.8845406 -6.1244578 -2.2936819 325.42001
-39.988426 -27.565571 7.9795718 325.42001
-10.230247 -7.0521059 -2.341063 325.42001
-11.281528 -7.7246237 -2.2463419 325.60001
-13.132167 -8.9917822 -2.2367902 325.60001
-14.222103 -9.7380772 -2.0156791 325.60001
-15.27418 -10.45845 -1.7270468 325.60001
-24.714508 -16.922377 -2.0945079 325.60001
-3.8804526 -2.6570015 -2.0938802 325.60001
-24.721588 -16.927225 -1.3972234 325.60001
-4.1342134 -2.830755 -2.0928466 325.60001
-24.738487 -16.938795 -0.69609171 325.60001
-4.43325 -3.0355096 -2.0980465 325.60001
-24.728651 -16.93206 0 325.60001
-4.7730737 -3.2681916 -2.1054759 325.60001
-39.903286 -27.322351 1.1227989 325.60001
-5.2029581 -3.5625396 -2.1306987 325.60001
-42.592278 -29.16354 2.4072452 325.60001
-5.6790099 -3.8884995 -2.1476769 325.60001
-39.932045 -27.342043 3.3841655 325.60001
-6.2738166 -4.2957716 -2.1802914 325.60001
-39.96492 -27.364552 4.5188212 325.60001
-6.9811902 -4.7801208 -2.2149372 325.60001
-42.751541 -29.272591 6.0591173 325.60001
-7.87147 -5.389708 -2.2604029 325.60001
-39.996239 -27.385998 6.8125234 325.60001
-8.9005089 -6.0943055 -2.29285 325.60001
-39.988522 -27.380713 7.9623871 325.60001
-10.250731 -7.0188212 -2.3406928 325.60001
-11.280505 -7.6806226 -2.2421267 325.75
-13.160574 -8.9607153 -2.2376251 325.75
-14.089917 -9.593483 -1.9933783 325.75
-18.101408 -12.32481 -2.0430653 325.75
-24.860973 -16.927235 -2.1031578 325.75
-3.8828647 -2.6437485 -2.0914397 325.75
-24.871506 -16.934406 -1.403186 325.75
-4.1446609 -2.8219991 -2.0943882 325.75
-24.896788 -16.951618 -0.69929481 325.75
-4.4381018 -3.021796 -2.0965917 325.75
-24.872086 -16.934801 0 325.75
-4.7909341 -3.2620308 -2.1095803 325.75
-39.910225 -27.173904 1.1209885 325.75
-5.2169652 -3.5521052 -2.1326194 325.75
-42.860043 -29.182364 2.4180524 325.75
-5.6891708 -3.8736184 -2.1476769 325.75
-39.934227 -27.190247 3.3783059 325.75
-6.2882195 -4.2814965 -2.1813941 325.75
-39.957413 -27.206036 4.5099034 325.75
-6.9968791 -4.7640052 -2.2159503 325.75
-43.029995 -29.298079 6.0876904 325.75
-7.8984222 -5.3778443 -2.264092 325.75
-39.969574 -27.214314 6.7958226 325.75
-8.926136 -6.0775895 -2.2953451 325.75
-39.98666 -27.225946 7.9477963 325.75
-10.27232 -6.9941735 -2.3414333 325.75
-11.289563 -7.6321201 -2.2388842 325.94
-13.188575 -8.9159155 -2.2373469 325.94
-14.256599 -9.6379347 -2.0124271 325.94
-15.088512 -10.200336 -1.6991793 325.94
-25.032669 -16.922916 -2.1129236 325.94
-3.8900967 -2.6298347 -2.0906262 325.94
-25.046694 -16.932398 -1.409894 325.94
-4.1509385 -2.8061724 -2.0928466 325.94
-25.072128 -16.949593 -0.7026372 325.94
-4.4480982 -3.0070622 -2.0965917 325.94
-25.049061 -16.933998 0 325.94
-4.8048391 -3.2482307 -2.1109483 325.94
-39.902386 -26.975338 1.1182497 325.94
-5.2271461 -3.5337245 -2.1319792 325.94
-43.136986 -29.162035 2.4282076 325.94
-5.7051482 -3.8568697 -2.1488683 325.94
-39.943184 -27.002918 3.37147 325.94
-6.3007903 -4.2595434 -2.1808429 325.94
-39.971523 -27.022079 4.5013576 325.94
-7.0126386 -4.7407765 -2.2159503 325.94
-43.314522 -29.282055 6.1141729 325.94
-7.911376 -5.3483529 -2.2627087 325.94
-39.974277 -27.023941 6.7813487 325.94
-8.9446201 -6.0468602 -2.2949293 325.94
-39.986801 -27.032406 7.9299631 325.94
-10.30197 -6.9644737 -2.3429146 325.94
-11.297728 -7.5917578 -2.2362905 326.10001
-13.20849 -8.8757372 -2.2365117 326.10001
-14.153204 -9.5105581 -1.9940752 326.10001
-14.27564 -9.5928316 -1.6046153 326.10001
-25.197405 -16.931953 -2.122829 326.10001
-3.8989418 -2.6199801 -2.0914397 326.10001
-25.218246 -16.945959 -1.4168816 326.10001
-4.1572266 -2.7935405 -2.0920758 326.10001
-25.237192 -16.958691 -0.70593309 326.10001
-4.4642096 -2.9998243 -2.100229 326.10001
-25.209133 -16.939835 0 326.10001
-4.8123312 -3.2337523 -2.1102643 326.10001
-39.8979 -26.810276 1.1160214 326.10001
-5.2385664 -3.5201705 -2.1326194 326.10001
-39.964821 -26.855244 2.2454143 326.10001
-5.7190657 -3.8430526 -2.1500599 326.10001
-39.927353 -26.830069 3.3637967 326.10001
-6.3158522 -4.2440763 -2.1819453 326.10001
-39.954269 -26.848154 4.4909534 326.10001
-7.0290618 -4.7233334 -2.2169633 326.10001
-39.960049 -26.852037 5.6300569 326.10001
-7.9278955 -5.3273249 -2.2631698 326.10001
-39.962463 -26.853661 6.7665963 326.10001
-8.9647188 -6.0240407 -2.2957609 326.10001
-39.975315 -26.862297 7.9127779 326.10001
-10.314853 -6.931293 -2.3414333 326.10001
-11.318239 -7.5540366 -2.235642 326.28
-13.226425 -8.8276005 -2.2348416 326.28
-14.272234 -9.5255966 -2.0066195 326.28
-25.368296 -16.931347 -2.1327345 326.28
-3.9132323 -2.6117754 -2.0946937 326.28
-25.37771 -16.93763 -1.4228442 326.28
-4.1659822 -2.7804663 -2.0920758 326.28
-25.410088 -16.95924 -0.70927548 326.28
-4.4705129 -2.9837165 -2.0987742 326.28
-25.372019 -16.933832 0 326.28
-4.8224664 -3.2186179 -2.1102643 326.28
-39.893787 -26.625973 1.113561 326.28
-5.2401438 -3.4973848 -2.128778 326.28
-39.911068 -26.637506 2.2376814 326.28
-5.7326989 -3.8261266 -2.1506557 326.28
-39.933453 -26.652445 3.3572395 326.28
-6.3275547 -4.2231464 -2.1813941 326.28
-39.962227 -26.67165 4.4824076 326.28
-7.045475 -4.702302 -2.2174697 326.28
-39.966553 -26.674538 5.6191382 326.28
-7.9429741 -5.301312 -2.2627087 326.28
-39.960968 -26.670811 6.7521224 326.28
-8.9917355 -6.0012779 -2.2978401 326.28
-39.975792 -26.680704 7.8962417 326.28
-10.346385 -6.9054003 -2.3436551 326.28
-11.335335 -7.5140805 -2.234345 326.45999
-13.255743 -8.7870998 -2.2351201 326.45999
-14.219303 -9.4258337 -1.9950044 326.45999
-15.248516 -10.108089 -1.7067964 326.45999
-25.541094 -16.930935 -2.1427794 326.45999
-3.9183724 -2.5974498 -2.0930667 326.45999
-25.545694 -16.933985 -1.4292727 326.45999
-4.1762352 -2.7683845 -2.0928466 326.45999
-25.578232 -16.955555 -0.71247852 326.45999
-4.4736528 -2.9655399 -2.0958643 326.45999
-25.540115 -16.930288 0 326.45999
-4.8325543 -3.2034519 -2.1102643 326.45999
-39.902241 -26.450798 1.1114721 326.45999
-5.2542634 -3.4829988 -2.1300585 326.45999
-39.914627 -26.459007 2.2332094 326.45999
-5.7399168 -3.8049333 -2.1488683 326.45999
-39.933838 -26.471743 3.3502638 326.45999
-6.343996 -4.2053714 -2.1824965 326.45999
-39.954533 -26.48546 4.4721894 326.45999
-7.0586004 -4.6790757 -2.2169633 326.45999
-39.950813 -26.482994 5.6052003 326.45999
-7.9644556 -5.2795582 -2.264092 326.45999
-39.978527 -26.501368 6.7409883 326.45999
-9.0023918 -5.9675951 -2.2957609 326.45999
-39.983746 -26.504826 7.8813267 326.45999
-10.36639 -6.8717761 -2.3432848 326.45999
-11.349682 -7.4780536 -2.233048 326.62
-13.276922 -8.7478685 -2.2345634 326.62
-14.240593 -9.3828106 -1.9943075 326.62
-25.716557 -16.944069 -2.1535218 326.62
-3.922559 -2.5844872 -2.0914397 326.62
-25.716333 -16.943922 -1.436167 326.62
-4.1870317 -2.7587423 -2.0943882 326.62
-25.717312 -16.944565 -0.71503174 326.62
-4.4865837 -2.9561105 -2.0980465 326.62
-25.717562 -16.944729 0 326.62
-4.846189 -3.1930463 -2.1123164 326.62
-39.887463 -26.280962 1.1090118 326.62
-5.2718806 -3.473525 -2.1332595 326.62
-39.901608 -26.290283 2.2283647 326.62
-5.758491 -3.7941418 -2.1518471 326.62
-39.920971 -26.303041 3.3430092 326.62
-6.3557148 -4.1876392 -2.1824965 326.62
-39.961823 -26.329958 4.4647579 326.62
-7.0748706 -4.6614752 -2.2179761 326.62
-39.951626 -26.323238 5.5949793 326.62
-7.9840431 -5.2605085 -2.2654753 326.62
-39.974648 -26.338408 6.7279062 326.62
-9.0222883 -5.9445853 -2.2965925 326.62
-39.983444 -26.344204 7.8667359 326.62
-10.380615 -6.8395572 -2.3421741 326.62
-11.368165 -7.4391189 -2.2320752 326.79999
-13.296052 -8.7006931 -2.2331715 326.79999
-14.251716 -9.3260612 -1.9917521 326.79999
-14.395102 -9.4198904 -1.6049869 326.79999
-25.888191 -16.940758 -2.1634274 326.79999
-3.9260726 -2.56915 -2.0889995 326.79999
-25.87977 -16.935247 -1.4423161 326.79999
-4.1941338 -2.7445643 -2.0936174 326.79999
-25.910955 -16.955654 -0.71893114 326.79999
-4.4958487 -2.9420009 -2.0980465 326.79999
-39.856758 -26.081532 0 326.79999
-4.8546238 -3.1767769 -2.1116323 326.79999
-39.896214 -26.107349 1.1069692 326.79999
-5.2748394 -3.4517581 -2.1300585 326.79999
-39.895405 -26.106821 2.2234271 326.79999
-5.7671871 -3.7739415 -2.1506557 326.79999
-39.928284 -26.128336 3.3367312 326.79999
-6.3704481 -4.1687045 -2.1830478 326.79999
-39.959362 -26.148674 4.4552832 326.79999
-7.0910993 -4.6402855 -2.2184827 326.79999
-39.946026 -26.139948 5.5826674 326.79999
-8.0005302 -5.2354002 -2.2654753 326.79999
-39.967705 -26.154133 6.7128754 326.79999
-9.0458298 -5.9194255 -2.2978401 326.79999
-39.988396 -26.167673 7.8514967 326.79999
-10.406985 -6.8101401 -2.3432848 326.79999
-11.378605 -7.3978257 -2.2298055 326.97
-13.320148 -8.6601248 -2.2328932 326.97
-14.359264 -9.3357086 -2.0029027 326.97
-26.052086 -16.937822 -2.1729143 326.97
-3.9382737 -2.5604775 -2.0914397 326.97
-26.067251 -16.947681 -1.4499557 326.97
-4.2022586 -2.7321079 -2.0936174 326.97
-26.088551 -16.961531 -0.7224592 326.97
-4.502996 -2.927633 -2.0973191 326.97
-39.856834 -25.913012 0 326.97
-4.8671794 -3.1644077 -2.1130004 326.97
-39.894711 -25.937637 1.1047873 326.97
-5.2961774 -3.4433219 -2.1345401 326.97
-39.905689 -25.944775 2.2197003 326.97
-5.7799597 -3.757854 -2.1512513 326.97
-39.918652 -25.953201 3.3294766 326.97
-6.3827887 -4.1497846 -2.1830478 326.97
-39.961643 -25.981153 4.4469228 326.97
-7.1080799 -4.6213346 -2.2194958 326.97
-39.956795 -25.977999 5.5733752 326.97
-8.0225554 -5.2158823 -2.2673197 326.97
-39.958786 -25.979296 6.6984015 326.97
-9.0649939 -5.8936262 -2.2982559 326.97
-39.991405 -26.000502 7.8369055 326.97
-10.427145 -6.779232 -2.3432848 326.97
-11.393874 -7.3597493 -2.2285087 327.14001
-13.342458 -8.6184158 -2.2323365 327.14001
-14.26676 -9.2154589 -1.986177 327.14001
-14.760202 -9.534193 -1.6393569 327.14001
-26.227919 -16.941639 -2.1833777 327.14001
-3.9443185 -2.5477898 -2.0906262 327.14001
-26.244963 -16.952648 -1.4570364 327.14001
-4.2056956 -2.7166235 -2.091305 327.14001
-26.263048 -16.964331 -0.72589439 327.14001
-4.5116625 -2.9142594 -2.0973191 327.14001
-39.854588 -25.743637 0 327.14001
-4.8749685 -3.1489329 -2.1123164 327.14001
-39.889198 -25.765993 1.1025127 327.14001
-5.2968211 -3.4214242 -2.1306987 327.14001
-39.903622 -25.775311 2.2153215 327.14001
-5.7958951 -3.7437956 -2.1530387 327.14001
-39.923416 -25.788097 3.3234775 327.14001
-6.396688 -4.1318712 -2.1835992 327.14001
-39.946556 -25.803043 4.4367046 327.14001
-7.1217608 -4.600224 -2.2194958 327.14001
-39.951931 -25.806517 5.5619922 327.14001
-8.0347261 -5.1899443 -2.2663975 327.14001
-39.964153 -25.814413 6.6864324 327.14001
-9.0857267 -5.8688269 -2.2990875 327.14001
-39.977196 -25.822836 7.8190722 327.14001
-10.450516 -6.7503972 -2.3440256 327.14001
-11.406972 -7.3175244 -2.2265632 327.32001
-13.369468 -8.576457 -2.2323365 327.32001
-14.384461 -9.2275715 -1.5943972 327.32001
-26.410318 -16.942108 -2.1941202 327.32001
-3.953841 -2.5363722 -2.0914397 327.32001
-26.437662 -16.959648 -1.4647692 327.32001
-4.2157626 -2.7043941 -2.0920758 327.32001
-26.432335 -16.956232 -0.72909749 327.32001
-4.5192275 -2.8990655 -2.0965917 327.32001
-39.851097 -25.564308 0 327.32001
-4.8816733 -3.1315727 -2.1109483 327.32001
-39.889164 -25.58873 1.1002845 327.32001
-5.3139229 -3.4088593 -2.1332595 327.32001
-39.917137 -25.606674 2.2115948 327.32001
-5.8060212 -3.7245381 -2.1524429 327.32001
-39.918591 -25.607607 3.3163624 327.32001
-6.4112554 -4.112793 -2.1841505 327.32001
-39.955345 -25.631186 4.4287157 327.32001
-7.14432 -4.5830512 -2.2220283 327.32001
-39.989338 -25.65299 5.5559525 327.32001
-8.0493526 -5.1636257 -2.2659364 327.32001
-39.983376 -25.649166 6.6761336 327.32001
-9.1041193 -5.8402543 -2.2990875 327.32001
-39.973404 -25.642771 7.802536 327.32001
-10.471671 -6.7175326 -2.3440256 327.32001
-11.424034 -7.2835197 -2.2259147 327.48001
-13.386685 -8.5348301 -2.2312231 327.48001
-14.208969 -9.0590858 -1.9706128 327.48001
-14.735922 -9.395051 -1.6304393 327.48001
-26.575289 -16.943371 -2.203886 327.48001
-3.959368 -2.524339 -2.0906262 327.48001
-26.5961 -16.956638 -1.4709183 327.48001
-4.2217422 -2.6916187 -2.091305 327.48001
-26.633005 -16.980167 -0.73332185 327.48001
-4.5288768 -2.8874357 -2.0973191 327.48001
-39.846439 -25.404541 0 327.48001
-4.8951535 -3.1209593 -2.1130004 327.48001
-39.881226 -25.42672 1.0981027 327.48001
-5.3218241 -3.392988 -2.1326194 327.48001
-40.015442 -25.512289 2.2130854 327.48001
-5.8131795 -3.7062573 -2.1512513 327.48001
-39.909195 -25.444551 3.3096657 327.48001
-6.4275784 -4.0979743 -2.1858041 327.48001
-39.951206 -25.471336 4.4203558 327.48001
-7.1603532 -4.5651627 -2.2230413 327.48001
-40.092644 -25.56151 5.5603662 327.48001
-8.0703049 -5.1453128 -2.2677808 327.48001
-39.947968 -25.469271 6.6583195 327.48001
-9.117094 -5.8127046 -2.2982559 327.48001
-39.971638 -25.484362 7.7882695 327.48001
-10.490389 -6.6882644 -2.3440256 327.48001
-11.436854 -7.2412596 -2.2239692 327.66
-13.411758 -8.4916725 -2.2309449 327.66
-14.514285 -9.1897392 -2.0089424 327.66
-14.873043 -9.4168863 -1.6423295 327.66
-25.008467 -15.834144 -2.0698142 327.66
-3.9719098 -2.5148201 -2.0930667 327.66
-24.995056 -15.825653 -1.3796147 327.66
-4.2317367 -2.6793296 -2.0920758 327.66
-25.032372 -15.849279 -0.68787509 327.66
-4.5300555 -2.8682106 -2.0936818 327.66
-25.035738 -15.851411 0 327.66
-4.9049339 -3.1055653 -2.1130004 327.66
-39.898407 -25.261728 1.0963851 327.66
-5.3420625 -3.3823338 -2.1364608 327.66
-40.171349 -25.434544 2.217278 327.66
-5.8247948 -3.6879764 -2.1512513 327.66
-39.914764 -25.272087 3.3035271 327.66
-6.4404211 -4.0777612 -2.1858041 327.66
-39.951954 -25.295633 4.411624 327.66
-7.1713905 -4.5405755 -2.2220283 327.66
-40.218063 -25.464121 5.5666385 327.66
-8.0847855 -5.1188927 -2.2673197 327.66
-39.952484 -25.295967 6.6457939 327.66
-9.1386156 -5.7861266 -2.2990875 327.66
-39.971466 -25.307985 7.772706 327.66
-10.516331 -6.6584287 -2.3451364 327.66
-11.458289 -7.207294 -2.2239692 327.82999
-13.441924 -8.4550056 -2.2317798 327.82999
-14.644058 -9.2111511 -2.0231128 327.82999
-15.780813 -9.9261732 -1.7393086 327.82999
-25.004671 -15.728004 -2.0656288 327.82999
-3.9747143 -2.5001056 -2.0906262 327.82999
-24.991169 -15.71951 -1.3768197 327.82999
-4.2365437 -2.6647968 -2.090534 327.82999
-25.035282 -15.747258 -0.68666816 327.82999
-4.5448532 -2.8587246 -2.0965917 327.82999
-25.033566 -15.746178 0 327.82999
-4.9125357 -3.0899978 -2.1123164 327.82999
-39.886864 -25.088943 1.0940176 327.82999
-5.3392434 -3.358398 -2.1313388 327.82999
-40.285534 -25.339706 2.2194207 327.82999
-5.8373275 -3.6716943 -2.1518471 327.82999
-39.910198 -25.103619 3.2969699 327.82999
-6.4541192 -4.0596576 -2.1863556 327.82999
-39.947609 -25.12715 4.4028921 327.82999
-7.1864686 -4.5203075 -2.2225347 327.82999
-40.377514 -25.397562 5.5782533 327.82999
-8.0949955 -5.0917735 -2.2659364 327.82999
-39.956951 -25.133026 6.6341033 327.82999
-9.1540871 -5.7579451 -2.2986717 327.82999
-39.964523 -25.137789 7.7568183 327.82999
-10.539368 -6.6292901 -2.3458769 327.82999
-11.479201 -7.1702156 -2.223645 328.01001
-13.461701 -8.4085379 -2.2306664 328.01001
-14.817817 -9.2556038 -2.0430908 328.01001
-14.866109 -9.2857685 -1.6352696 328.01001
-25.003195 -15.617663 -2.0614433 328.01001
-3.9840987 -2.4885743 -2.0914397 328.01001
-24.986208 -15.607052 -1.3738384 328.01001
-4.2480249 -2.6534297 -2.0920758 328.01001
-25.032061 -15.635694 -0.68522906 328.01001
-4.5601325 -2.8483803 -2.0995016 328.01001
-25.013361 -15.624014 0 328.01001
-4.9238129 -3.0755451 -2.1130004 328.01001
-39.889175 -24.915844 1.0919286 328.01001
-5.3513746 -3.3426116 -2.1319792 328.01001
-42.052605 -26.267179 2.3122151 328.01001
-5.8455949 -3.6513147 -2.1506557 328.01001
-39.905952 -24.926323 3.290134 328.01001
-6.4684715 -4.04038 -2.1869068 328.01001
-39.95879 -24.959328 4.3954606 328.01001
-7.1973524 -4.4956584 -2.2215216 328.01001
-45.740635 -28.570822 6.3067508 328.01001
-8.1159039 -5.0694103 -2.2673197 328.01001
-39.943325 -24.949667 6.6187944 328.01001
-9.1787682 -5.7333035 -2.3003349 328.01001
-39.971321 -24.967155 7.7428756 328.01001
-10.551807 -6.590941 -2.3440256 328.01001
-11.490796 -7.1329274 -2.2220237 328.17001
-13.488495 -8.3730021 -2.2312231 328.17001
-14.93643 -9.2718096 -2.0558674 328.17001
-25.007723 -15.523579 -2.0582345 328.17001
-3.98948 -2.4764752 -2.0906262 328.17001
-25.000837 -15.519304 -1.3722546 328.17001
-4.25385 -2.6405833 -2.091305 328.17001
-25.034855 -15.540421 -0.68411493 328.17001
-4.5649028 -2.8336699 -2.0980465 328.17001
-25.014414 -15.527732 0 328.17001
-4.933979 -3.0627744 -2.1136844 328.17001
-39.880455 -24.755848 1.0897932 328.17001
-5.3606882 -3.3276548 -2.1319792 328.17001
-42.315899 -26.267653 2.3226497 328.17001
-5.8671231 -3.642025 -2.1548259 328.17001
-39.89743 -24.766384 3.2837162 328.17001
-6.4764624 -4.0202732 -2.1858041 328.17001
-39.943741 -24.795132 4.3861713 328.17001
-7.216454 -4.4796238 -2.2235477 328.17001
-45.756107 -28.403168 6.2979231 328.17001
-8.1250687 -5.0436473 -2.2659364 328.17001
-39.937119 -24.791021 6.6062689 328.17001
-9.1930809 -5.7066178 -2.2999191 328.17001
-39.963757 -24.807558 7.7279606 328.17001
-10.58687 -6.5718145 -2.3477285 328.17001
-11.50855 -7.0967307 -2.2213752 328.34
-13.503164 -8.3267069 -2.229553 328.34
-14.722085 -9.0783529 -2.0226483 328.34
-25.006123 -15.41999 -2.0543282 328.34
-3.9983656 -2.4655864 -2.0914397 328.34
-24.995758 -15.413599 -1.3694596 328.34
-4.2585244 -2.626013 -2.0897632 328.34
-25.045115 -15.444034 -0.6831401 328.34
-4.5812192 -2.8250024 -2.1016841 328.34
-25.016113 -15.426151 0 328.34
-4.9446445 -3.049108 -2.1143684 328.34
-39.870338 -24.585987 1.0875186 328.34
-5.3721509 -3.3127291 -2.1326194 328.34
-42.563702 -26.246845 2.3319664 328.34
-5.8779035 -3.6246009 -2.1548259 328.34
-39.882431 -24.593443 3.2764616 328.34
-6.4932714 -4.0040665 -2.187458 328.34
-39.947639 -24.633654 4.3785543 328.34
-7.2297134 -4.4581923 -2.2235477 328.34
-45.743805 -28.207851 6.2846818 328.34
-8.1499367 -5.0256467 -2.2687032 328.34
-39.939697 -24.628757 6.5945783 328.34
-9.2083073 -5.6782894 -2.2995033 328.34
-39.971672 -24.648476 7.7153153 328.34
-10.601304 -6.5372791 -2.3466177 328.34
-11.52664 -7.0635338 -2.221051 328.5
-13.529741 -8.2910366 -2.2301097 328.5
-14.501787 -8.8867064 -1.9889646 328.5
-15.554526 -9.531826 -1.701966 328.5
-25.001453 -15.32091 -2.0504217 328.5
-4.0083508 -2.4563205 -2.0930667 328.5
-24.992712 -15.315554 -1.3669441 328.5
-4.2737088 -2.618932 -2.0936174 328.5
-25.023361 -15.334335 -0.6813761 328.5
-4.5811481 -2.8073311 -2.0980465 328.5
-24.999409 -15.319658 0 328.5
-4.949935 -3.0333242 -2.1130004 328.5
-39.875763 -24.435898 1.085801 328.5
-5.3813806 -3.2977145 -2.1326194 328.5
-42.877014 -26.275068 2.3451028 328.5
-5.8814907 -3.6041822 -2.1524429 328.5
-39.881207 -24.439234 3.2707415 328.5
-6.5060668 -3.986923 -2.1880093 328.5
-39.948357 -24.480385 4.3711228 328.5
-7.2421346 -4.4379859 -2.2235477 328.5
-45.754646 -28.038483 6.2753901 328.5
-8.1655979 -5.0038848 -2.2691643 328.5
-39.937393 -24.473665 6.5828876 328.5
-9.2257957 -5.6535749 -2.2999191 328.5
-39.942753 -24.47695 7.6965094 328.5
-10.617843 -6.5066223 -2.3462474 328.5
-11.539883 -7.0191178 -2.2191057 328.69
-13.56393 -8.2502413 -2.2312231 328.69
-16.102757 -9.7944794 -2.2040756 328.69
-14.87999 -9.0507336 -1.6248658 328.69
-25.011213 -15.213036 -2.0470734 328.69
-4.0117912 -2.4401665 -2.0906262 328.69
-24.993862 -15.202482 -1.3642422 328.69
-4.276063 -2.6009092 -2.090534 328.69
-25.02795 -15.223216 -0.68012267 328.69
-4.5952072 -2.7950284 -2.100229 328.69
-25.007355 -15.21069 0 328.69
-4.9599667 -3.0168929 -2.1130004 328.69
-39.867744 -24.2495 1.083387 328.69
-5.3922868 -3.279851 -2.1326194 328.69
-43.131184 -26.234482 2.3542333 328.69
-5.898304 -3.5876353 -2.1542301 328.69
-39.887028 -24.26123 3.2646029 328.69
-6.5225372 -3.9673243 -2.1891119 328.69
-39.949352 -24.299139 4.362391 328.69
-7.2634239 -4.4179673 -2.2255738 328.69
-45.752331 -27.828793 6.2623811 328.69
-8.1804838 -4.9757681 -2.2687032 328.69
-39.937111 -24.291691 6.5695271 328.69
-9.2444925 -5.6229501 -2.2999191 328.69
-39.947823 -24.298208 7.6819186 328.69
-10.637682 -6.470355 -2.3458769 328.69
-11.55775 -6.9858441 -2.2187815 328.85001
-13.581831 -8.2092581 -2.2303882 328.85001
-16.133446 -9.7515297 -2.2045403 328.85001
-24.978918 -15.097992 -2.7230341 328.85001
-25.007496 -15.115267 -2.0433066 328.85001
-4.0201535 -2.429899 -2.0914397 328.85001
-24.996893 -15.108858 -1.3620994 328.85001
-4.2833095 -2.5889583 -2.090534 328.85001
-25.022451 -15.124306 -0.67882288 328.85001
-4.6029944 -2.7821853 -2.100229 328.85001
-25.003521 -15.112864 0 328.85001
-4.9699807 -3.0040026 -2.1136844 328.85001
-39.866859 -24.096703 1.0815302 328.85001
-5.4062896 -3.2677205 -2.1345401 328.85001
-43.433384 -26.252417 2.3667176 328.85001
-5.9115672 -3.5731254 -2.1554217 328.85001
-39.899986 -24.116724 3.2601385 328.85001
-6.5303001 -3.9471054 -2.1880093 328.85001
-39.936954 -24.139071 4.3536592 328.85001
-7.2691097 -4.3936639 -2.2235477 328.85001
-45.746563 -27.65057 6.2509985 328.85001
-8.1910162 -4.950891 -2.2677808 328.85001
-39.931904 -24.136019 6.5575581 328.85001
-9.2651815 -5.6001487 -2.3011665 328.85001
-39.947964 -24.145723 7.6689487 328.85001
-10.657391 -6.4416404 -2.3462474 328.85001
-11.582544 -6.948494 -2.2191057 329.04001
-13.608979 -8.1641741 -2.2303882 329.04001
-16.174212 -9.7030849 -2.2057018 329.04001
-24.979324 -14.985368 -2.7176464 329.04001
-25.014711 -15.006597 -2.0398188 329.04001
-4.0328894 -2.4193742 -2.0938802 329.04001
-24.997177 -14.996078 -1.3593975 329.04001
-4.2902884 -2.5737906 -2.0897632 329.04001
-25.034746 -15.018616 -0.67780161 329.04001
-4.6121955 -2.766906 -2.100229 329.04001
-25.014053 -15.006201 0 329.04001
-4.9815264 -2.9884717 -2.1143684 329.04001
-39.876247 -23.922194 1.0796269 329.04001
-5.4122214 -3.2468503 -2.1326194 329.04001
-43.756622 -26.250072 2.3795745 329.04001
-5.9233837 -3.5535021 -2.1554217 329.04001
-39.913013 -23.94425 3.2546976 329.04001
-6.5433531 -3.9254284 -2.1880093 329.04001
-39.94677 -23.9645 4.3460422 329.04001
