# .PCD v0.7 - Point Cloud Data file format
VERSION 0.7
FIELDS x y z intensity
SIZE 4 4 4 4
TYPE F F F F
COUNT 1 1 1 1
WIDTH 1257
HEIGHT 1
VIEWPOINT 0 0 0 1 0 0 0
POINTS 1257
DATA ascii
4.4252415 4.4577994 -1.9600158 134.78999
48.661472 49.019493 4.8299384 134.78999
4.8190889 4.8545451 -1.9614354 134.78999
58.32254 58.75164 7.7234073 134.78999
5.277874 5.3167052 -1.9611793 134.78999
5.8256307 5.8684921 -1.9592927 134.78999
6.2530308 6.2990365 -1.8865907 134.78999
5.9912491 6.0017152 -1.3932637 134.95
8.0609522 8.0750332 -1.6035525 134.95
10.16634 10.184099 -1.6827914 134.95
11.340775 11.360585 -1.4976038 134.95
12.671737 12.693872 -1.2542214 134.95
2.890147 2.8951957 -1.8213667 134.95
17.929585 17.960905 -1.1834985 134.95
2.9648688 2.9700482 -1.7529036 134.95
23.694923 23.736315 -0.77867573 134.95
2.9074662 2.912545 -1.6069989 134.95
24.245304 24.287659 0 134.95
3.0453722 3.0506921 -1.4565322 134.95
4.3931608 4.400835 -1.9403561 134.95
48.769978 48.855171 4.827148 134.95
4.8312683 4.8397079 -1.9608841 134.95
5.2899666 5.2992077 -1.9601662 134.95
5.830997 5.8411827 -1.9556036 134.95
6.1973448 6.2081709 -1.864552 134.95
5.9985285 6.0090075 -1.5997142 134.95
5.9453697 5.9163861 -1.3780243 135.14
8.0834732 8.0440664 -1.6027174 135.14
10.211321 10.16154 -1.6846497 135.14
11.333216 11.277966 -1.4916587 135.14
12.749117 12.686965 -1.2577093 135.14
2.9463556 2.9319921 -1.8506517 135.14
17.976303 17.888668 -1.18266 135.14
3.0113294 2.996649 -1.7744873 135.14
23.046438 22.934086 -0.75486147 135.14
2.6609206 2.6479485 -1.4658682 135.14
24.308701 24.190195 0 135.14
3.1865489 3.1710143 -1.6362244 135.14
3.1776907 3.1621995 -1.5147936 135.14
4.42803 4.4064436 -1.9492923 135.14
4.8500166 4.8263726 -1.9619867 135.14
5.306139 5.2802715 -1.9596597 135.14
5.8530936 5.8245597 -1.9565259 135.14
6.1222167 6.0923705 -1.8358603 135.14
6.0309606 6.0015597 -1.6030469 135.14
7.9496255 7.8668098 -1.8374739 135.3
10.266485 10.159534 -1.6890634 135.3
11.384482 11.265884 -1.4942597 135.3
12.699408 12.567112 -1.2493384 135.3
2.9662199 2.9353194 -1.857973 135.3
18.017666 17.829967 -1.182101 135.3
3.0446095 3.0128922 -1.7891333 135.3
23.144503 22.903393 -0.7559756 135.3
3.624392 3.5866349 -1.9911073 135.3
24.401747 24.147541 0 135.3
3.2862306 3.251996 -1.6827391 135.3
11.257452 11.140177 0.3677054 135.3
3.1986301 3.1653082 -1.5205557 135.3
24.273012 24.020147 1.592501 135.3
4.4878154 4.4410634 -1.9701436 135.3
4.8812404 4.83039 -1.9691533 135.3
5.3139873 5.2586288 -1.9571272 135.3
5.8624196 5.8013477 -1.9542203 135.3
6.0502119 5.9871836 -1.8092475 135.3
6.0323296 5.9694877 -1.5989735 135.3
5.9902234 5.8906879 -1.3802941 135.48
7.8669963 7.7362757 -1.5506667 135.48
8.0477552 7.9140315 -1.3199365 135.48
11.384323 11.195157 -1.4896151 135.48
12.60084 12.391459 -1.2358056 135.48
3.0509851 3.0002887 -1.9051545 135.48
18.150513 17.848917 -1.187132 135.48
2.9961629 2.9463775 -1.7552161 135.48
23.214914 22.829168 -0.75592917 135.48
3.0498478 2.9991705 -1.6702895 135.48
24.159487 23.758043 0 135.48
2.9466875 2.8977242 -1.5042046 135.48
3.2126112 3.1592295 -1.5224764 135.48
24.553476 24.145487 1.6059171 135.48
4.4976611 4.4229264 -1.9683564 135.48
24.494678 24.087666 2.4022734 135.48
4.910099 4.8285112 -1.974666 135.48
5.3359995 5.247335 -1.9591532 135.48
5.8764534 5.7788081 -1.952837 135.48
6.062017 5.9612885 -1.8071684 135.48
6.0230265 5.9229455 -1.5915674 135.48
8.0624495 7.8815627 -1.852389 135.64999
7.9026623 7.7253604 -1.5531718 135.64999
10.358184 10.125791 -1.6939418 135.64999
11.37477 11.119569 -1.4840416 135.64999
12.670364 12.386095 -1.2390145 135.64999
2.9997737 2.9324715 -1.8677347 135.64999
3.1302605 3.0600309 -1.8284465 135.64999
23.314003 22.790937 -0.75695044 135.64999
24.348576 23.802298 0 135.64999
3.2899075 3.2160959 -1.6745306 135.64999
11.240935 10.988737 0.36496654 135.64999
3.2070668 3.135114 -1.5154338 135.64999
24.433575 23.885389 1.5934327 135.64999
4.5080342 4.4068933 -1.9671649 135.64999
24.433359 23.885178 2.3892987 135.64999
4.9202795 4.8098893 -1.9730122 135.64999
5.3543124 5.2341847 -1.9601662 135.64999
5.8963566 5.7640676 -1.9537592 135.64999
6.0698853 5.9337029 -1.8042576 135.64999
6.0377626 5.9023008 -1.5908267 135.64999
8.0773077 7.8493543 -1.8504436 135.82001
7.9312301 7.7073994 -1.5542852 135.82001
10.365389 10.072863 -1.690225 135.82001
11.364869 11.044136 -1.4784681 135.82001
12.678442 12.320639 -1.2362242 135.82001
2.6009562 2.5275536 -1.6147444 135.82001
18.314854 17.797981 -1.1909519 135.82001
3.1009448 3.0134315 -1.8060919 135.82001
23.433144 22.771828 -0.75862163 135.82001
3.1303864 3.0420423 -1.704481 135.82001
24.25271 23.568266 0 135.82001
3.0622208 2.9758008 -1.5541395 135.82001
3.2340195 3.1427507 -1.5237569 135.82001
24.567377 23.87405 1.597532 135.82001
3.2833352 3.190675 -1.4286072 135.82001
4.9276352 4.7885704 -1.9702559 135.82001
5.367044 5.2155781 -1.9591532 135.82001
5.9120374 5.7451911 -1.9532981 135.82001
6.100091 5.9279375 -1.8080001 135.82001
6.1947899 6.0199637 -1.6274869 135.82001
8.0891504 7.8116016 -1.8475254 136
8.0722284 7.79526 -1.5771096 136
10.408414 10.051289 -1.6920834 136
11.366563 10.976562 -1.474195 136
12.679771 12.244713 -1.2325969 136
3.0544314 2.94963 -1.8905119 136
18.397982 17.766724 -1.1927221 136
3.4157276 3.2985299 -1.9833865 136
23.494499 22.688375 -0.75829667 136
3.1895125 3.0800765 -1.7313977 136
35.555527 34.335575 0 136
3.2643213 3.1523185 -1.5333604 136
24.308847 23.474781 1.5759174 136
3.2864761 3.173713 -1.4256285 136
51.400795 49.637169 4.9966564 136
4.9426546 4.773066 -1.9702559 136
5.380619 5.1960034 -1.9581403 136
5.9398565 5.736053 -1.9565259 136
6.1721592 5.9603848 -1.8238014 136
6.2320509 6.0182214 -1.6323009 136
8.0710039 7.747931 -1.8381224 136.17
8.0981789 7.7740183 -1.5776663 136.17
10.42816 10.010732 -1.6904572 136.17
11.387588 10.931756 -1.4727087 136.17
12.711729 12.202892 -1.2321783 136.17
3.0526252 2.9304321 -1.8840041 136.17
13.710413 13.161601 -0.88629627 136.17
2.9848309 2.8653514 -1.7282366 136.17
24.20647 23.237513 -0.77904713 136.17
3.2147648 3.0860815 -1.7401274 136.17
12.836551 12.322719 0 136.17
3.1033902 2.9791648 -1.5657682 136.17
11.295487 10.843342 0.36352748 136.17
3.2586246 3.1281855 -1.5263178 136.17
4.5450888 4.3631544 -1.9659733 136.17
4.9609556 4.7623744 -1.9719096 136.17
5.397408 5.181356 -1.9586467 136.17
5.9582539 5.7197518 -1.956987 136.17
6.2335658 5.9840431 -1.8366919 136.17
6.1860766 5.9384551 -1.6156372 136.17
8.0939569 7.7239499 -1.8381224 136.34
8.0925531 7.72261 -1.5720993 136.34
8.3840733 8.000803 -1.3552463 136.34
11.376754 10.856676 -1.4671352 136.34
12.789737 12.205067 -1.2362242 136.34
3.2080271 3.0613754 -1.9742997 136.34
13.768193 13.138794 -0.88750744 136.34
2.965282 2.8297272 -1.7120488 136.34
24.227575 23.120035 -0.77751517 136.34
3.168648 3.0237963 -1.7103008 136.34
12.881738 12.292862 0 136.34
3.9130437 3.7341628 -1.968668 136.34
3.2459595 3.0975735 -1.5160741 136.34
4.5635395 4.3549218 -1.9683564 136.34
51.720421 49.356071 4.9991674 136.34
4.9708915 4.7436519 -1.9702559 136.34
5.4141574 5.1666541 -1.9591532 136.34
5.9794221 5.7060785 -1.9583703 136.34
6.2512937 5.9655218 -1.8366919 136.34
6.2520132 5.9662085 -1.6282275 136.34
6.1491404 5.8312383 -1.3922909 136.52
8.1570129 7.7353072 -1.579893 136.52
10.360831 9.8251905 -1.6697824 136.52
11.338557 10.752369 -1.457846 136.52
12.696278 12.039897 -1.2235285 136.52
3.177856 3.0135653 -1.9498955 136.52
18.536722 17.5784 -1.1913246 136.52
2.7585609 2.6159472 -1.5879426 136.52
12.96324 12.293058 -0.41477689 136.52
3.1565027 2.9933159 -1.6986612 136.52
12.947867 12.278481 0 136.52
3.9343016 3.7309036 -1.9734563 136.52
3.2584245 3.0899684 -1.5173545 136.52
4.5702715 4.3339949 -1.9653776 136.52
52.053288 49.362206 5.0163274 136.52
4.9941397 4.7359495 -1.9735634 136.52
5.4359775 5.1549449 -1.9611793 136.52
5.9803734 5.671196 -1.952837 136.52
6.292716 5.9673915 -1.843345 136.52
6.3149357 5.9884624 -1.639707 136.52
8.0705147 7.610589 -1.5590171 136.67999
10.366549 9.7757769 -1.6662979 136.67999
11.320729 10.675579 -1.4517151 136.67999
12.744365 12.018084 -1.2249237 136.67999
3.0759296 2.9006374 -1.8823771 136.67999
13.058127 12.313966 -0.83701104 136.67999
3.4935706 3.2944777 -2.0057411 136.67999
12.971334 12.232118 -0.41394129 136.67999
3.1716263 2.9908805 -1.7022985 136.67999
3.2829242 3.0958357 -1.6423807 136.67999
3.2560127 3.0704577 -1.5122327 136.67999
4.5906906 4.3290744 -1.9689521 136.67999
4.9877634 4.7035189 -1.9658456 136.67999
5.453167 5.1423998 -1.9621922 136.67999
5.994771 5.6531386 -1.9523758 136.67999
6.3022394 5.9430847 -1.8412659 136.67999
6.3330641 5.9721527 -1.6400772 136.67999
6.2095566 5.8189368 -1.3981273 136.86
8.1507454 7.6380134 -1.5698726 136.86
10.372569 9.7200699 -1.6623487 136.86
11.213265 10.507881 -1.4336941 136.86
12.818453 12.012093 -1.2284116 136.86
3.1050251 2.9096997 -1.8945793 136.86
3.5039034 3.2834861 -2.0057411 136.86
3.6758301 3.4445975 -1.9671006 136.86
11.343684 10.630096 0 136.86
11.204944 10.500083 0.35651779 136.86
4.2334452 3.9671352 -1.9603964 136.86
51.914669 48.648914 3.317858 136.86
3.3184166 3.1096675 -1.4190753 136.86
5.005321 4.6904554 -1.9669482 136.86
5.4707074 5.1265659 -1.9626987 136.86
6.0039806 5.6262932 -1.9496092 136.86
6.2652073 5.8710866 -1.8250488 136.86
6.3575315 5.957603 -1.6415585 136.86
6.3802714 5.9455366 -1.4328212 137.02
8.0010681 7.4558969 -1.5370277 137.02
10.505761 9.7899275 -1.6793067 137.02
11.194489 10.431726 -1.4275633 137.02
12.832972 11.958568 -1.2265978 137.02
3.2133896 2.9944379 -1.9555898 137.02
13.087122 12.1954 -0.834216 137.02
3.5130589 3.2736886 -2.0057411 137.02
24.724064 23.039433 -0.78461772 137.02
3.745405 3.4902031 -1.9991096 137.02
11.341135 10.56838 0 137.02
3.2778633 3.0545185 -1.6307521 137.02
11.200578 10.4374 0.35545009 137.02
4.2486658 3.959173 -1.9623171 137.02
3.3215005 3.0951824 -1.4166923 137.02
52.804646 49.206676 5.0471597 137.02
5.0212131 4.679081 -1.9680507 137.02
5.4835863 5.1099496 -1.9621922 137.02
6.0225167 5.6121583 -1.9505314 137.02
6.3545694 5.9215865 -1.8462558 137.02
6.3727055 5.9384866 -1.6411881 137.02
8.1610613 7.5545807 -1.8270983 137.21001
8.0010405 7.4064512 -1.5322958 137.21001
10.51047 9.7293959 -1.674893 137.21001
11.208561 10.375608 -1.4249623 137.21001
12.878414 11.921368 -1.2271559 137.21001
3.2420733 3.0011418 -1.9669784 137.21001
13.183203 12.203506 -0.83775634 137.21001
3.5252497 3.2632744 -2.0065119 137.21001
13.091264 12.1184 -0.41417342 137.21001
3.7569582 3.4777637 -1.9991096 137.21001
11.276315 10.438327 0 137.21001
3.3541753 3.1049132 -1.663586 137.21001
11.196978 10.364885 0.35424316 137.21001
4.2715049 3.9540722 -1.9667988 137.21001
4.6487527 4.3032851 -1.9766968 137.21001
5.0211825 4.6480384 -1.9619867 137.21001
5.5047612 5.0956802 -1.9637117 137.21001
6.0396657 5.5908341 -1.9500703 137.21001
6.3311028 5.8606133 -1.8337811 137.21001
6.3779402 5.9039698 -1.6374851 137.21001
6.4280872 5.9171438 -1.435415 137.37
10.541984 9.7040434 -1.6755899 137.37
11.253608 10.359103 -1.4270059 137.37
3.2638841 3.0044508 -1.9751132 137.37
13.206941 12.157173 -0.8371042 137.37
3.5343487 3.2534173 -2.0065119 137.37
25.015863 23.027451 -0.78939915 137.37
3.7680261 3.4685206 -1.999837 137.37
11.289234 10.391897 0 137.37
4.2839241 3.9434116 -1.9674391 137.37
4.6593471 4.2889938 -1.976101 137.37
5.0398006 4.6392064 -1.9641918 137.37
5.5075812 5.0698051 -1.9596597 137.37
6.0495276 5.5686746 -1.9482257 137.37
6.3244147 5.8217115 -1.8271279 137.37
6.3510208 5.8462033 -1.626376 137.37
6.4354239 5.8887196 -1.4331454 137.53999
8.2189026 7.5206871 -1.5656974 137.53999
10.550213 9.6539478 -1.6723378 137.53999
11.3078 10.347177 -1.4299785 137.53999
3.2876115 3.008321 -1.9840614 137.53999
13.385921 12.248756 -0.84614134 137.53999
3.5399017 3.2391789 -2.0041993 137.53999
11.344995 10.381211 -0.35702845 137.53999
3.7810497 3.4598408 -2.001292 137.53999
38.113579 34.87574 0 137.53999
4.299799 3.934521 -1.9693598 137.53999
4.6650095 4.2687058 -1.9731224 137.53999
5.0592165 4.6294241 -1.9663969 137.53999
5.5183172 5.0495234 -1.9581403 137.53999
6.0717664 5.5559559 -1.9500703 137.53999
6.3575358 5.8174481 -1.831702 137.53999
6.3509388 5.8114119 -1.6219324 137.53999
6.4868755 5.9026027 -1.4409271 137.7
6.5669947 5.9755054 -1.247826 137.7
10.525706 9.5776558 -1.6642072 137.7
11.357271 10.334321 -1.4325794 137.7
11.414895 10.386755 -0.71971393 137.7
3.5530283 3.2330072 -2.0065119 137.7
13.855474 12.607511 -0.43492386 137.7
3.7893186 3.4480147 -2.0005646 137.7
11.340024 10.318628 0 137.7
4.0242 3.6617401 -1.9802966 137.7
4.3149738 3.9263239 -1.9712805 137.7
4.6882086 4.2659416 -1.9778883 137.7
5.062171 4.6062212 -1.962538 137.7
5.5366898 5.0380001 -1.9596597 137.7
6.0858183 5.5376687 -1.9496092 137.7
6.2247219 5.6640611 -1.7888722 137.7
6.3555131 5.783072 -1.6189699 137.7
8.2883663 7.4943709 -1.8358527 137.88
9.3945513 8.4945869 -1.7800239 137.88
10.555744 9.5445414 -1.6642072 137.88
11.411837 10.318624 -1.4353662 137.88
11.498589 10.397065 -1.0840156 137.88
3.5686431 3.2267799 -2.0095952 137.88
13.690348 12.378861 -0.4285177 137.88
3.7932229 3.4298458 -1.9969271 137.88
4.0342898 3.6478193 -1.9796126 137.88
4.3286929 3.9140196 -1.9719206 137.88
53.254074 48.152523 3.3481371 137.88
4.7015872 4.2511921 -1.9778883 137.88
5.0808945 4.5941634 -1.9641918 137.88
5.5481844 5.0166883 -1.9581403 137.88
6.1002984 5.5159116 -1.9486868 137.88
6.2178173 5.6221728 -1.7818031 137.88
6.4611201 5.8421679 -1.6411881 137.88
6.4230022 5.7731557 -1.4188788 138.05
9.3814163 8.4322529 -1.772787 138.05
10.569242 9.4999008 -1.6618842 138.05
11.46758 10.307349 -1.4385245 138.05
11.575386 10.404247 -1.0883405 138.05
2.6592882 2.3902349 -1.5919672 138.05
13.472131 12.10909 -0.84474385 138.05
3.576829 3.2149436 -2.0088243 138.05
30.261593 27.199881 -0.94467932 138.05
3.8116961 3.4260483 -2.001292 138.05
11.367146 10.217076 0 138.05
4.0492883 3.6396022 -1.9816647 138.05
4.3304224 3.8922925 -1.9674391 138.05
4.7226996 4.2448812 -1.9814628 138.05
5.0930738 4.5777826 -1.9636406 138.05
5.5299487 4.9704566 -1.9464906 138.05
6.1238747 5.5042925 -1.9509925 138.05
6.2795749 5.6442394 -1.7946937 138.05
6.4462671 5.7940669 -1.6330415 138.05
8.3295765 7.4396567 -1.83488 138.23
9.4270639 8.4198904 -1.7764055 138.23
10.60348 9.4706192 -1.6625811 138.23
11.488024 10.26066 -1.4370382 138.23
3.3385901 2.9819002 -1.9930096 138.23
13.599508 12.146556 -0.85033387 138.23
3.5896642 3.2061496 -2.0103662 138.23
30.366282 27.121992 -0.94528282 138.23
3.8293879 3.4202616 -2.0049295 138.23
38.939518 34.779278 0 138.23
4.057899 3.6243591 -1.9802966 138.23
38.918587 34.760582 1.2115107 138.23
4.342629 3.878669 -1.9674391 138.23
38.907677 34.750835 2.4327729 138.23
4.7260447 4.2211208 -1.9772925 138.23
38.908649 34.751705 3.6479845 138.23
5.1102977 4.564321 -1.964743 138.23
5.5844979 4.9878583 -1.9601662 138.23
6.1498451 5.492805 -1.9537592 138.23
6.7758451 6.0519238 -1.9310838 138.23
6.4703016 5.7790241 -1.6345227 138.23
8.3427591 7.4070482 -1.8329345 138.39999
9.4623718 8.4010868 -1.7783539 138.39999
10.609251 9.4193335 -1.6590966 138.39999
11.497569 10.208019 -1.4344373 138.39999
3.3501556 2.9744072 -1.9946365 138.39999
13.61009 12.083604 -0.84875005 138.39999
3.5922608 3.1893585 -2.0065119 138.39999
14.035379 12.461193 -0.43575945 138.39999
3.8339465 3.4039371 -2.0020196 138.39999
39.343155 34.930485 0 138.39999
4.0728512 3.6160464 -1.9823488 138.39999
4.3470335 3.859477 -1.9642378 138.39999
4.7471142 4.2146854 -1.980867 138.39999
5.1209426 4.5465856 -1.9636406 138.39999
65.295349 57.971924 8.1462507 138.39999
5.5934854 4.9661288 -1.9581403 138.39999
6.1617498 5.4706573 -1.9523758 138.39999
6.7937717 6.0317926 -1.9310838 138.39999
6.4007053 5.6828122 -1.6126747 138.39999
6.361196 5.6140714 -1.3939122 138.57001
9.4753771 8.3624907 -1.7761271 138.57001
10.596939 9.3523235 -1.6528244 138.57001
11.435237 10.092164 -1.4229187 138.57001
12.90044 11.385278 -1.2031597 138.57001
3.3589661 2.9644542 -1.9946365 138.57001
13.702804 12.093403 -0.85229039 138.57001
3.6030917 3.1799071 -2.0072827 138.57001
13.974847 12.333496 -0.43274206 138.57001
3.846823 3.3950121 -2.0034745 138.57001
39.485607 34.848007 0 138.57001
4.0793352 3.6002154 -1.9802966 138.57001
4.3641481 3.8515773 -1.9667988 138.57001
4.7538729 4.1955285 -1.978484 138.57001
5.1315269 4.5288272 -1.962538 138.57001
5.5980411 4.9405489 -1.9545947 138.57001
6.175036 5.4497757 -1.9514536 138.57001
6.8204389 6.0193758 -1.9335787 138.57001
6.385119 5.6351843 -1.6045281 138.57001
6.4900861 5.6916528 -1.4182303 138.75
9.4971352 8.328764 -1.775292 138.75
10.641203 9.3320837 -1.6551474 138.75
11.33214 9.9380207 -1.4061981 138.75
12.987144 11.389421 -1.2079031 138.75
3.3751309 2.9599104 -1.9987038 138.75
13.827847 12.126697 -0.85769403 138.75
3.6172264 3.1722224 -2.0095952 138.75
13.615157 11.940172 -0.42044032 138.75
3.8504663 3.3767684 -1.999837 138.75
39.575344 34.706646 0 138.75
4.0976901 3.5935779 -1.9837168 138.75
4.3918967 3.8515902 -1.9738413 138.75
4.7670298 4.180573 -1.978484 138.75
56.784634 49.798786 5.2814021 138.75
5.1500659 4.5164866 -1.9641918 138.75
5.5742588 4.8884935 -1.9409192 138.75
6.1862741 5.4252167 -1.9496092 138.75
6.8481407 6.0056581 -1.9360737 138.75
6.5062284 5.7058091 -1.6304493 138.75
9.5143852 8.2970037 -1.7741787 138.91
10.637278 9.2762203 -1.6505014 138.91
11.47091 10.003188 -1.4199461 138.91
3.3847604 2.9516747 -1.9995173 138.91
13.93092 12.148435 -0.86197972 138.91
3.6232891 3.159683 -2.0080535 138.91
13.931754 12.149162 -0.4291676 138.91
3.8640933 3.3696761 -2.0020196 138.91
11.366973 9.91255 0 138.91
4.1048765 3.5796506 -1.9823488 138.91
4.4054914 3.8418014 -1.9751219 138.91
4.7887583 4.1760283 -1.9826543 138.91
57.281353 49.952106 5.3146062 138.91
5.1626582 4.5020871 -1.9641918 138.91
5.5922627 4.8767233 -1.9424386 138.91
6.1969995 5.4040828 -1.9482257 138.91
6.8604617 5.9826541 -1.9348261 138.91
6.517693 5.683743 -1.6293384 138.91
7.8365574 6.7930284 -1.7038866 139.08
9.5344715 8.2648458 -1.7733437 139.08
10.655748 9.2368107 -1.6491076 139.08
11.551701 10.013456 -1.4262627 139.08
12.94549 11.221647 -1.1979977 139.08
3.3990257 2.9464059 -2.0027711 139.08
3.6340425 3.1501274 -2.0088243 139.08
13.602116 11.790835 -0.41793355 139.08
3.8797052 3.3630774 -2.0049295 139.08
40.054165 34.720486 0 139.08
4.1126394 3.5649934 -1.9809806 139.08
4.4197345 3.8311954 -1.9764023 139.08
4.7939143 4.1555486 -1.9796755 139.08
5.1759934 4.4867496 -1.9641918 139.08
5.5877018 4.8436341 -1.9358541 139.08
6.2159476 5.3882217 -1.9491479 139.08
6.8796606 5.9635534 -1.9352421 139.08
6.5330429 5.6630921 -1.6289681 139.08
7.8189816 6.7348881 -1.6954564 139.25999
9.5588884 8.2335587 -1.7730653 139.25999
10.690734 9.2084751 -1.6500368 139.25999
11.554434 9.952424 -1.4227328 139.25999
12.939865 11.145766 -1.1942308 139.25999
3.3944218 2.9237888 -1.9946365 139.25999
3.6425228 3.1374907 -2.0080535 139.25999
13.630001 11.740216 -0.41765502 139.25999
3.8916631 3.3520882 -2.005657 139.25999
11.35003 9.7763605 0 139.25999
4.1252427 3.553282 -1.9816647 139.25999
4.4331841 3.8185279 -1.9770426 139.25999
4.8040524 4.1379757 -1.978484 139.25999
5.1929765 4.4729757 -1.9652944 139.25999
5.6175504 4.8386831 -1.9409192 139.25999
6.2328444 5.3686671 -1.9491479 139.25999
6.8998442 5.9431877 -1.9356579 139.25999
7.4979057 6.4583292 -1.8644816 139.25999
7.8179421 6.6936893 -1.690917 139.42999
9.5832758 8.2051611 -1.7730653 139.42999
10.721027 9.1792984 -1.6505014 139.42999
11.599039 9.9310484 -1.4245907 139.42999
12.927412 11.068397 -1.1900455 139.42999
3.40447 2.9148929 -1.99545 139.42999
13.943476 11.938346 -0.85601705 139.42999
3.6518159 3.1266694 -2.0080535 139.42999
3.9001765 3.3393149 -2.0049295 139.42999
4.1343398 3.5398045 -1.9809806 139.42999
59.264145 50.741714 1.8113704 139.42999
4.4516912 3.8115191 -1.9802437 139.42999
4.8192096 4.1261868 -1.9796755 139.42999
5.2033043 4.4550476 -1.9641918 139.42999
59.305153 50.776825 7.2838426 139.42999
5.6186552 4.8106689 -1.9363606 139.42999
6.2265716 5.3311648 -1.9422312 139.42999
6.9233913 5.9277787 -1.9373212 139.42999
7.5409226 6.4565063 -1.8704065 139.42999
7.8148823 6.6486344 -1.6857291 139.61
7.9511886 6.7645993 -1.4671628 139.61
10.722578 9.1224022 -1.64632 139.61
11.645349 9.907464 -1.4264486 139.61
3.4177852 2.9077349 -1.9978904 139.61
13.649193 11.612267 -0.83570665 139.61
3.6602149 3.1139858 -2.0072827 139.61
13.296374 11.3121 -0.40530691 139.61
3.9078102 3.3246312 -2.0034745 139.61
4.1468716 3.5280163 -1.9816647 139.61
4.4622002 3.7962873 -1.9796034 139.61
28.737865 24.449194 1.7595491 139.61
4.8292403 4.1085525 -1.978484 139.61
28.72637 24.439413 2.6373527 139.61
5.2158103 4.4374332 -1.9636406 139.61
28.717508 24.431873 3.5176318 139.61
5.6116362 4.774188 -1.928763 139.61
6.235878 5.3052716 -1.9399257 139.61
6.94943 5.9123373 -1.9394002 139.61
7.5761385 6.4455194 -1.8741095 139.61
7.8334179 6.6267853 -1.6857291 139.77
9.6272612 8.144311 -1.7722303 139.77
10.723745 9.0718966 -1.6426032 139.77
11.654726 9.8594723 -1.4242191 139.77
3.4258919 2.8981793 -1.9978904 139.77
13.619032 11.521203 -0.83188683 139.77
3.6703055 3.1049442 -2.0080535 139.77
13.326385 11.273634 -0.40526047 139.77
3.9156568 3.3125024 -2.0027471 139.77
28.846497 24.40308 0 139.77
4.1610117 3.5200639 -1.9837168 139.77
42.68412 36.109207 1.2980405 139.77
4.4655509 3.777693 -1.9764023 139.77
4.8334064 4.0888853 -1.9755054 139.77
5.2296495 4.4240923 -1.9641918 139.77
5.6352859 4.7672458 -1.9323086 139.77
6.2536407 5.2903509 -1.9408479 139.77
6.9644198 5.8916445 -1.9389844 139.77
7.5806036 6.4129133 -1.8707768 139.77
7.9799271 6.7102065 -1.7129654 139.94
9.6195507 8.0889425 -1.766385 139.94
10.72933 9.0221405 -1.639351 139.94
11.676308 9.8184404 -1.4232903 139.94
3.4386711 2.8915293 -2.0003309 139.94
3.6780894 3.0928528 -2.0072827 139.94
14.07903 11.838856 -0.4270786 139.94
3.925468 3.3008699 -2.0027471 139.94
41.233593 34.672737 0 139.94
4.1771913 3.5125406 -1.9864529 139.94
4.4825406 3.7693045 -1.9789633 139.94
4.8499012 4.0782127 -1.9772925 139.94
5.2530532 4.4172173 -1.9680507 139.94
5.6420016 4.7442789 -1.9297761 139.94
6.273778 5.2755303 -1.9422312 139.94
6.9908538 5.878509 -1.9414793 139.94
7.5273924 6.3296766 -1.8530022 139.94
8.0494318 6.7255964 -1.7233411 140.12
9.6297169 8.0459833 -1.7636015 140.12
10.724084 8.9603672 -1.6342403 140.12
11.655139 9.7382975 -1.4169736 140.12
3.4435318 2.8771977 -1.9978904 140.12
13.181696 11.013793 -0.80104858 140.12
3.6863716 3.0800993 -2.0065119 140.12
3.9386778 3.2909105 -2.0042019 140.12
11.386518 9.5138559 0 140.12
4.1824369 3.49458 -1.9837168 140.12
4.4929061 3.7539887 -1.978323 140.12
4.8597589 4.0605078 -1.976101 140.12
57.796738 48.291302 5.266614 140.12
5.252151 4.3883657 -1.962538 140.12
59.779385 49.94788 7.2676792 140.12
5.6509395 4.7215681 -1.92775 140.12
6.2813601 5.2483077 -1.9394644 140.12
7.0032821 5.8515 -1.9398161 140.12
6.8670235 5.7376513 -1.685995 140.12
8.0374689 6.6752048 -1.716532 140.28999
9.6505003 8.0148449 -1.7630448 140.28999
10.765904 8.9412003 -1.6365633 140.28999
11.668662 9.6909504 -1.4151157 140.28999
12.99846 10.795362 -1.1815351 140.28999
3.4520535 2.8669679 -1.9978904 140.28999
3.6926546 3.0667899 -2.0049701 140.28999
13.251263 11.005318 -0.39992198 140.28999
3.9512911 3.2815902 -2.005657 140.28999
41.326153 34.321819 0 140.28999
4.1985703 3.4869583 -1.9864529 140.28999
4.5098553 3.7454839 -1.980884 140.28999
4.8732543 4.0472903 -1.9766968 140.28999
57.987347 48.159119 5.2709389 140.28999
5.2592325 4.3678498 -1.9603329 140.28999
5.705111 4.7381568 -1.9414256 140.28999
6.290916 5.2246742 -1.93762 140.28999
7.0206127 5.8306952 -1.9398161 140.28999
9.6481352 7.9617972 -1.7580346 140.47
10.830712 8.9376783 -1.6421386 140.47
11.672939 9.6326981 -1.4119574 140.47
3.46668 2.8607605 -2.0011442 140.47
13.527634 11.163221 -0.8179118 140.47
3.7008476 3.0539992 -2.0041993 140.47
13.601915 11.224521 -0.4094384 140.47
3.961581 3.2691607 -2.005657 140.47
11.396602 9.4046602 0 140.47
4.2080545 3.4725547 -1.9857689 140.47
4.5274453 3.7361212 -1.9834448 140.47
4.8815274 4.0283151 -1.9749095 140.47
5.2877569 4.3635426 -1.9658456 140.47
5.7065377 4.7091269 -1.9368671 140.47
6.3103008 5.2073622 -1.9385422 140.47
6.9966474 5.7737465 -1.9281731 140.47
7.5689459 6.2460165 -1.8489288 140.47
9.6718626 7.93608 -1.7583129 140.63
10.832594 8.8884983 -1.638654 140.63
11.656689 9.5646944 -1.4067554 140.63
3.4788928 2.8545454 -2.0035846 140.63
13.524776 11.097522 -0.81586212 140.63
3.7207749 3.0530179 -2.0103662 140.63
13.273055 10.890977 -0.39862218 140.63
3.9735754 3.2604487 -2.0071118 140.63
4.2148294 3.4584057 -1.9844009 140.63
4.5466495 3.730675 -1.9872862 140.63
4.8853779 4.0086126 -1.9719309 140.63
59.180557 48.559586 5.3531117 140.63
5.2880316 4.3390031 -1.9614354 140.63
5.7091956 4.6845822 -1.9333216 140.63
6.3203044 5.186017 -1.9371589 140.63
7.0172806 5.7579083 -1.9294205 140.63
7.6121879 6.2460499 -1.855224 140.63
8.6330805 7.0384598 -1.8300164 140.81
9.6890717 7.8993983 -1.7569212 140.81
10.874321 8.8657198 -1.6407448 140.81
3.4864273 2.8424475 -2.0027711 140.81
13.604478 11.091588 -0.818564 140.81
3.7360694 3.0459781 -2.0134494 140.81
3.9751351 3.240886 -2.0027471 140.81
11.425858 9.315382 0 140.81
4.2213035 3.4415846 -1.9823488 140.81
4.5554104 3.7139783 -1.9860058 140.81
4.8949876 3.9908321 -1.9707394 140.81
58.780777 47.923351 5.3033056 140.81
5.3031268 4.3235836 -1.9619867 140.81
5.732882 4.6739583 -1.9363606 140.81
6.3244987 5.1562977 -1.93347 140.81
7.061111 5.7568498 -1.9364895 140.81
7.0026469 5.7091846 -1.7022884 140.81
8.6450357 7.00811 -1.8283951 140.97
9.7126312 7.873558 -1.7571995 140.97
10.897492 8.8340673 -1.6405125 140.97
11.659099 9.4514647 -1.4002531 140.97
3.4929318 2.8315501 -2.0019577 140.97
13.481755 10.929004 -0.80934048 140.97
3.7330921 3.0262361 -2.0072827 140.97
13.512963 10.954302 -0.40386781 140.97
3.9885116 3.2332921 -2.0049295 140.97
44.711994 36.245838 0 140.97
4.2294378 3.4285996 -1.9816647 140.97
4.564292 3.7000494 -1.9853655 140.97
4.894248 3.9675288 -1.9659733 140.97
5.3181667 4.3111792 -1.9630892 140.97
5.7414026 4.6542759 -1.934841 140.97
6.3615499 5.1569991 -1.9403868 140.97
7.0467658 5.7124701 -1.9281731 140.97
8.6439552 6.962347 -1.8235315 141.14999
9.7357769 7.8417635 -1.7569212 141.14999
10.937569 8.8097572 -1.6423708 141.14999
11.642209 9.3773155 -1.3946795 141.14999
3.4946957 2.8148322 -1.9978904 141.14999
13.52847 10.896621 -0.81008577 141.14999
3.7540786 3.0237544 -2.0134494 141.14999
13.643854 10.989557 -0.40674597 141.14999
4.0001001 3.2219145 -2.005657 141.14999
11.381249 9.1671238 0 141.14999
4.24897 3.422369 -1.9857689 141.14999
4.5817962 3.6904464 -1.9879265 141.14999
4.9126358 3.956924 -1.9683564 141.14999
5.322701 4.2872148 -1.9597816 141.14999
5.7740779 4.6507797 -1.9409192 141.14999
6.3746886 5.1345468 -1.9394644 141.14999
7.0662007 5.6915312 -1.9285889 141.14999
7.6440706 6.1569815 -1.8492991 141.14999
7.9844599 6.3967586 -1.6808655 141.3
9.7439079 7.8063421 -1.7546945 141.3
10.957494 8.7786083 -1.6419063 141.3
11.662056 9.3430691 -1.3941221 141.3
11.495764 9.2098436 -1.0300241 141.3
3.502053 2.8056734 -1.9978904 141.3
13.636469 10.924871 -0.81483728 141.3
3.761982 3.0139158 -2.0134494 141.3
4.0070677 3.2102666 -2.0049295 141.3
45.360176 36.340355 0 141.3
4.2535152 3.4077082 -1.9837168 141.3
4.589963 3.677254 -1.9872862 141.3
4.924468 3.9452429 -1.9689521 141.3
60.276855 48.290867 5.400825 141.3
5.3339067 4.2732649 -1.9597816 141.3
64.046509 51.310928 7.6563392 141.3
5.7832141 4.6332278 -1.9399061 141.3
6.3896275 5.1190572 -1.9399257 141.3
7.0108466 5.6167469 -1.909461 141.3
7.6616974 6.1381769 -1.8496695 141.3
9.7449446 7.7542562 -1.7502409 141.49001
8.0735874 6.4243221 -1.2065735 141.49001
11.761537 9.358901 -1.4022967 141.49001
3.5213454 2.8020082 -2.0035846 141.49001
13.682002 10.887055 -0.81539631 141.49001
3.7661793 2.9968278 -2.0103662 141.49001
4.0176911 3.1969609 -2.0049295 141.49001
45.519562 36.220867 0 141.49001
4.2706747 3.3982651 -1.9864529 141.49001
4.6021323 3.6620128 -1.9872862 141.49001
4.9375238 3.9288912 -1.9689521 141.49001
60.444466 48.096928 5.4015226 141.49001
5.3510571 4.2579479 -1.9608841 141.49001
64.005951 50.93087 7.631258 141.49001
5.8106585 4.6236625 -1.9439582 141.49001
6.3898168 5.0845108 -1.9348533 141.49001
7.0018792 5.5715418 -1.9019761 141.49001
6.9022746 5.4922843 -1.6619252 141.49001
8.0311251 6.3539877 -1.6824867 141.64999
7.9726071 6.3076906 -1.4287511 141.64999
8.1600409 6.4559827 -1.2167947 141.64999
11.653321 9.2197618 -1.3863193 141.64999
12.97564 10.265942 -1.1569809 141.64999
3.5262907 2.7898967 -2.0019577 141.64999
13.883128 10.983919 -0.82555151 141.64999
3.7397985 2.9588177 -1.9918658 141.64999
13.745507 10.875038 -0.40693164 141.64999
4.0266032 3.185729 -2.0049295 141.64999
11.416896 9.0327101 0 141.64999
4.2786736 3.38516 -1.9857689 141.64999
4.6153121 3.6514981 -1.9885668 141.64999
4.9424872 3.9103491 -1.9665691 141.64999
5.3508649 4.2334456 -1.9564739 141.64999
5.8341684 4.6158214 -1.9475037 141.64999
6.407043 5.0690622 -1.9357755 141.64999
6.9345641 5.4864216 -1.8795217 141.64999
7.1210432 5.6339583 -1.7108054 141.64999
7.8943391 6.2055421 -1.6497383 141.83
7.8866801 6.1995211 -1.173122 141.83
11.765203 9.2483311 -1.3961657 141.83
13.009396 10.226359 -1.1571203 141.83
3.5379109 2.7810631 -2.0035846 141.83
13.749507 10.808143 -0.81558263 141.83
3.7418211 2.9413517 -1.9880116 141.83
4.0380564 3.1742146 -2.005657 141.83
46.228992 36.339451 0 141.83
4.2907653 3.3728628 -1.9864529 141.83
4.626761 3.6369808 -1.9885668 141.83
4.9487433 3.8900831 -1.9641861 141.83
5.3641381 4.2166142 -1.9564739 141.83
5.8471198 4.5962744 -1.9469972 141.83
6.4259958 5.0513144 -1.9366978 141.83
7.047122 5.539566 -1.9053028 141.83
7.0259099 5.5228915 -1.6837732 141.83
7.9476075 6.204885 -1.4170605 142.02
11.024665 8.6072168 -1.6356342 142.02
11.878998 9.2742138 -1.4060123 142.02
13.098278 10.226135 -1.1620034 142.02
3.549994 2.7715642 -2.0052116 142.02
13.810469 10.782159 -0.81707329 142.02
3.7748287 2.947098 -2.000345 142.02
13.859577 10.820499 -0.40823147 142.02
4.0529656 3.1642458 -2.0078394 142.02
11.381978 8.886179 0 142.02
4.2930379 3.3516762 -1.9823488 142.02
4.6373029 3.6204519 -1.9879265 142.02
4.961616 3.873651 -1.9641861 142.02
5.3735452 4.1952538 -1.9548202 142.02
5.8684297 4.5816216 -1.9490231 142.02
6.4365754 5.0251865 -1.9348533 142.02
7.0361552 5.4932928 -1.897402 142.02
7.0116529 5.4741631 -1.6759968 142.02
7.9492588 6.1705227 -1.4142771 142.17999
11.058073 8.5837049 -1.637028 142.17999
13.098414 10.167497 -1.1594921 142.17999
3.5620496 2.7650011 -2.007652 142.17999
13.86104 10.759477 -0.81828445 142.17999
3.8034534 2.9523878 -2.011137 142.17999
13.837618 10.741295 -0.40669954 142.17999
4.0603142 3.1517732 -2.0071118 142.17999
45.306278 35.168488 0 142.17999
4.3068347 3.343132 -1.9844009 142.17999
4.641408 3.6028407 -1.9853655 142.17999
4.969398 3.8574393 -1.9629946 142.17999
5.3867583 4.1814103 -1.9553714 142.17999
5.8689742 4.5557251 -1.9449711 142.17999
6.4567327 5.0119662 -1.9366978 142.17999
6.9525647 5.3968501 -1.8707894 142.17999
7.1650906 5.561821 -1.7089539 142.17999
7.3128061 5.6417918 -1.5174481 142.35001
7.8436518 6.0513368 -1.3922877 142.35001
11.09293 8.5581379 -1.6384218 142.35001
11.684679 9.0146694 -1.3768443 142.35001
13.093772 10.101777 -1.1564229 142.35001
3.563005 2.7488399 -2.0035846 142.35001
13.908721 10.730506 -0.81921613 142.35001
3.8165801 2.9444718 -2.0134494 142.35001
13.790273 10.639124 -0.40437847 142.35001
4.0666976 3.1374362 -2.005657 142.35001
11.391798 8.7887135 0 142.35001
4.3211989 3.3337827 -1.9864529 142.35001
4.6490769 3.5867386 -1.9840851 142.35001
4.9808211 3.8426778 -1.9629946 142.35001
5.3991408 4.1654091 -1.9553714 142.35001
5.885529 4.5406551 -1.9459841 142.35001
6.4715753 4.9927864 -1.9366978 142.35001
7.0165634 5.4132423 -1.8836799 142.35001
7.1473265 5.5141253 -1.7008071 142.35001
7.8474269 6.0171914 -1.3897825 142.52
11.105662 8.5155172 -1.6365633 142.52
11.754042 9.0126762 -1.3818604 142.52
3.5508463 2.7226915 -1.9921961 142.52
20.126762 15.432649 -1.1827532 142.52
3.8194416 2.928643 -2.0103662 142.52
4.0759888 3.1253562 -2.005657 142.52
30.447533 23.346333 0 142.52
4.3325629 3.3220904 -1.9871371 142.52
4.6596985 3.5729289 -1.9840851 142.52
4.9800801 3.8185887 -1.9582286 142.52
5.4191046 4.1552205 -1.9581277 142.52
65.340965 50.101662 7.6817913 142.52
5.9143295 4.5349455 -1.9510492 142.52
6.487905 4.9747472 -1.9371589 142.52
6.9922299 5.3614502 -1.8728685 142.52
7.1527376 5.4845228 -1.698215 142.52
8.1031094 6.1751504 -1.4318129 142.69
8.5286713 6.4994588 -1.253963 142.69
11.912191 9.0779438 -1.3972805 142.69
3.5530963 2.7077141 -1.9889421 142.69
20.123203 15.335324 -1.179865 142.69
3.8383892 2.9251277 -2.0157621 142.69
13.738661 10.469845 -0.40103611 142.69
4.0852437 3.1132488 -2.005657 142.69
11.39921 8.6870155 0 142.69
4.3409061 3.3080816 -1.9864529 142.69
4.6732931 3.5613844 -1.9853655 142.69
4.9959435 3.8072674 -1.9600158 142.69
5.4283514 4.1367927 -1.9570252 142.69
5.9246812 4.5150318 -1.9500362 142.69
6.4995408 4.9531164 -1.9362366 142.69
7.0485625 5.37151 -1.8836799 142.69
7.7207999 5.8838034 -1.8289324 142.69
7.9049716 5.984992 -1.628987 142.87
7.884037 5.9691424 -1.3897825 142.87
11.140052 8.4343281 -1.634008 142.87
11.997807 9.0837488 -1.4039687 142.87
13.124468 9.9367638 -1.1511214 142.87
3.558672 2.6943326 -1.9873153 142.87
20.184025 15.281677 -1.1806104 142.87
3.8387318 2.9063709 -2.011137 142.87
14.018572 10.613706 -0.40823147 142.87
4.0920339 3.0981503 -2.0042019 142.87
47.209427 35.74308 0 142.87
4.3542738 3.2966969 -1.9878211 142.87
4.6723733 3.5375354 -1.9802437 142.87
4.9987469 3.7846386 -1.9564413 142.87
5.4428535 4.1208792 -1.9575765 142.87
5.9342084 4.4928932 -1.9485166 142.87
6.479383 4.9056544 -1.9256309 142.87
7.1823792 5.4379048 -1.9148667 142.87
7.8880014 5.9354057 -1.6218536 143.03999
7.9064608 5.949296 -1.3906176 143.03999
12.045392 9.0636759 -1.4063839 143.03999
3.5710304 2.6870577 -1.9897556 143.03999
20.186174 15.18929 -1.1780949 143.03999
3.8517621 2.8982971 -2.0134494 143.03999
13.936566 10.48671 -0.40493551 143.03999
4.1012082 3.0859952 -2.0042019 143.03999
11.44567 8.6124096 0 143.03999
4.3565273 3.2781129 -1.9844009 143.03999
4.6828489 3.5236568 -1.9802437 143.03999
5.0069032 3.7674947 -1.9552498 143.03999
5.4504476 4.101244 -1.9559227 143.03999
5.9351449 4.4659595 -1.9444647 143.03999
6.528121 4.9121504 -1.9357755 143.03999
7.1891031 5.409513 -1.9123718 143.03999
7.2948766 5.4891033 -1.720063 143.03999
8.0125151 5.9897661 -1.6435778 143.22
7.94732 5.9410295 -1.3945144 143.22
7.9870143 5.9707026 -1.166153 143.22
12.053072 9.0102901 -1.4039687 143.22
13.127396 9.8134012 -1.1460989 143.22
3.5853078 2.6802015 -1.9930096 143.22
20.244995 15.134172 -1.1787471 143.22
3.8682389 2.8917069 -2.0173037 143.22
14.049515 10.502733 -0.4072566 143.22
4.1123748 3.0742111 -2.0049295 143.22
32.705601 24.449114 0 143.22
4.3713202 3.2677863 -1.9864529 143.22
4.6954131 3.5100622 -1.980884 143.22
5.0171852 3.7506032 -1.9546541 143.22
5.4448271 4.0702877 -1.9493073 143.22
5.9475961 4.4461331 -1.9439582 143.22
6.5435209 4.8916178 -1.9357755 143.22
7.2373996 5.4103274 -1.9206882 143.22
7.7780437 5.8144865 -1.8296731 143.22
7.7878709 5.7858925 -1.5939689 143.39
7.9410653 5.8997064 -1.3903393 143.39
11.179464 8.3056307 -1.6286651 143.39
12.074958 8.9709253 -1.4034114 143.39
13.041145 9.6887417 -1.1360539 143.39
3.6005776 2.675 -1.9970769 143.39
20.248114 15.04306 -1.1763247 143.39
3.8723576 2.8769152 -2.0149913 143.39
28.41803 21.112787 -0.82194066 143.39
4.1244693 3.064218 -2.0063844 143.39
32.795658 24.365088 0 143.39
4.3749623 3.2503188 -1.9837168 143.39
4.7042861 3.4949853 -1.9802437 143.39
5.0328889 3.7391162 -1.9564413 143.39
5.4645963 4.0598474 -1.9520638 143.39
5.9669743 4.4330821 -1.9459841 143.39
6.56113 4.8745022 -1.9366978 143.39
7.2502799 5.3864965 -1.9198565 143.39
7.7984166 5.7937274 -1.8304136 143.39
7.4055433 5.4698191 -1.5125844 143.55
8.1343431 6.0081191 -1.4212357 143.55
11.194626 8.2684784 -1.6275036 143.55
12.082342 8.9241562 -1.4013678 143.55
13.129134 9.6973286 -1.1413554 143.55
3.5977459 2.6573362 -1.9913826 143.55
11.533474 8.5187559 -0.66865849 143.55
3.8833451 2.8682833 -2.0165329 143.55
28.454359 21.016716 -0.82129073 143.55
4.1330099 3.0526884 -2.0063844 143.55
33.056622 24.415998 0 143.55
4.3946042 3.2459049 -1.9885051 143.55
4.7094555 3.4784577 -1.978323 143.55
5.0463824 3.7273159 -1.9576328 143.55
5.4960155 4.0594201 -1.9592303 143.55
5.9731054 4.4118042 -1.9439582 143.55
6.5715861 4.8538485 -1.9357755 143.55
7.2416897 5.3487949 -1.9136192 143.55
7.8145657 5.7719278 -1.8304136 143.55
7.4179173 5.4430242 -1.5116117 143.73
7.8226438 5.7399993 -1.363618 143.73
11.196523 8.215641 -1.624019 143.73
13.202965 9.6879025 -1.1451223 143.73
3.6281724 2.6622338 -2.0035846 143.73
20.346689 14.929732 -1.1768837 143.73
3.8848975 2.8506105 -2.0126786 143.73
28.652433 21.024216 -0.82509732 143.73
4.1455836 3.0418935 -2.0078394 143.73
11.438907 8.3934946 0 143.73
4.3956881 3.2254119 -1.9844009 143.73
4.7264705 3.4681292 -1.980884 143.73
5.0580673 3.7114437 -1.9576328 143.73
5.4978914 4.0341725 -1.9553714 143.73
5.9744568 4.3838606 -1.9399061 143.73
6.5883713 4.834331 -1.9362366 143.73
7.2158723 5.2947702 -1.902392 143.73
7.8231525 5.7403727 -1.8281918 143.73
8.0102606 5.8433242 -1.628987 143.89
8.1458521 5.9422355 -1.4170605 143.89
11.213002 8.1796598 -1.6230899 143.89
13.170329 9.6074905 -1.1399603 143.89
3.6385448 2.6542454 -2.0052116 143.89
20.406055 14.885807 -1.1779085 143.89
3.9032793 2.8473639 -2.0180745 143.89
28.657724 20.905235 -0.82356542 143.89
4.1465368 3.0248153 -2.0042019 143.89
4.4137883 3.2197697 -1.9885051 143.89
4.7208295 3.4437504 -1.9744816 143.89
5.0745811 3.7018051 -1.9600158 143.89
70.654922 51.541348 6.11555 143.89
5.5013695 4.0131388 -1.952615 143.89
5.9944911 4.3728609 -1.9424386 143.89
6.6018457 4.8159137 -1.9362366 143.89
7.2480149 5.2872815 -1.906966 143.89
7.8216858 5.7057629 -1.8241185 143.89
8.1260586 5.8887725 -1.6487657 144.07001
8.0538235 5.8364253 -1.3978546 144.07001
8.3256359 6.0334015 -1.202392 144.07001
12.1064 8.7732363 -1.3948653 144.07001
13.265068 9.6128969 -1.1455408 144.07001
3.6527832 2.64709 -2.0084655 144.07001
20.520662 14.870864 -1.1818216 144.07001
3.9047337 2.8296728 -2.0142202 144.07001
28.577547 20.709507 -0.81938744 144.07001
4.1650701 3.018333 -2.0085669 144.07001
33.229885 24.080952 0 144.07001
4.4238815 3.2058876 -1.9885051 144.07001
4.7408304 3.4355733 -1.978323 144.07001
5.08464 3.6847243 -1.9594201 144.07001
5.5155067 3.996964 -1.9531662 144.07001
6.0097656 4.3551421 -1.9429451 144.07001
6.612215 4.7917237 -1.9348533 144.07001
7.2851825 5.2794085 -1.9123718 144.07001
7.8268404 5.6719356 -1.821156 144.07001
8.1499014 5.8692493 -1.6500626 144.24001
8.0646772 5.8078737 -1.3967413 144.24001
11.206341 8.0703812 -1.6149594 144.24001
12.093596 8.7093477 -1.3904065 144.24001
13.291913 9.5723305 -1.1454012 144.24001
3.6606212 2.6362402 -2.0084655 144.24001
11.528226 8.3021908 -0.6625095 144.24001
3.9191024 2.8223886 -2.0173037 144.24001
28.987705 20.875845 -0.82936811 144.24001
4.1679602 3.0016067 -2.005657 144.24001
33.392075 24.047703 0 144.24001
4.4303241 3.190551 -1.9871371 144.24001
33.138077 23.864784 0.94811451 144.24001
4.7463903 3.4181702 -1.9764023 144.24001
5.0940013 3.6685061 -1.9588243 144.24001
5.5211015 3.9760876 -1.9509612 144.24001
6.0195212 4.3350306 -1.9419321 144.24001
6.6200867 4.7675347 -1.9330088 144.24001
7.2770028 5.2406211 -1.9061344 144.24001
7.8420401 5.6475396 -1.8207858 144.24001
8.042613 5.7537003 -1.3897825 144.42
11.226792 8.0316677 -1.6142625 144.42
13.308938 9.5212393 -1.1442852 144.42
3.6703711 2.6257901 -2.009279 144.42
20.67124 14.788242 -1.1852688 144.42
3.9264488 2.8089888 -2.0165329 144.42
28.937689 20.702076 -0.82607216 144.42
4.171309 2.9841621 -2.0027471 144.42
11.446439 8.1888037 0 144.42
4.43574 3.1733365 -1.9850849 144.42
33.121822 23.695412 0.94551492 144.42
4.7586465 3.4043446 -1.9770426 144.42
5.0977368 3.6469305 -1.9558456 144.42
5.5273113 3.9542484 -1.9487561 144.42
6.029963 4.3138466 -1.9409192 144.42
6.646111 4.7546401 -1.9362366 144.42
7.0834103 5.0674849 -1.8512456 144.42
7.8517513 5.6171575 -1.8189342 144.42
8.1357393 5.783906 -1.6400112 144.59
8.0467358 5.7206316 -1.3875558 144.59
8.3622408 5.944932 -1.1998367 144.59
13.320868 9.4701481 -1.1428901 144.59
3.6721892 2.6106539 -2.0060251 144.59
20.700371 14.716427 -1.1844302 144.59
3.9287496 2.7930491 -2.0134494 144.59
29.153799 20.726185 -0.83048224 144.59
4.1892552 2.9782491 -2.0071118 144.59
33.717655 23.970747 0 144.59
4.4481993 3.1623394 -1.9864529 144.59
4.7640939 3.3869166 -1.9751219 144.59
32.77898 23.303421 1.8755419 144.59
5.1163154 3.6373203 -1.9588243 144.59
5.5374522 3.9367173 -1.9482049 144.59
6.0411592 4.2948155 -1.9404126 144.59
6.6411552 4.7213683 -1.9307033 144.59
6.7014008 4.7641983 -1.7477057 144.59
6.6958146 4.7602267 -1.5478715 144.59
8.259841 5.8374786 -1.6617353 144.75
8.143549 5.7552915 -1.4014732 144.75
8.3122988 5.8745518 -1.1903124 144.75
13.324452 9.4167919 -1.1409369 144.75
3.6899097 2.6077704 -2.0117195 144.75
20.672863 14.610135 -1.1805172 144.75
3.9410553 2.7852626 -2.0157621 144.75
29.258915 20.678158 -0.83182847 144.75
4.2005982 2.9686894 -2.0085669 144.75
11.426449 8.0754156 0 144.75
4.4508739 3.1455667 -1.9837168 144.75
4.776628 3.3757868 -1.9764023 144.75
5.1202164 3.6186111 -1.9564413 144.75
5.546854 3.9201288 -1.9476535 144.75
6.061029 4.2835121 -1.9429451 144.75
6.6559033 4.7039275 -1.9311644 144.75
6.7434359 4.765789 -1.7551905 144.75
6.6978464 4.7335696 -1.5452794 144.75
8.2484598 5.788516 -1.6555747 144.94
8.2177095 5.7669363 -1.410937 144.94
8.1886435 5.7465386 -1.1698698 144.94
12.145305 8.5232019 -1.3842757 144.94
13.344174 9.3645325 -1.1399603 144.94
3.6895638 2.5892227 -2.0068386 144.94
20.734282 14.550682 -1.1812625 144.94
3.957823 2.7774787 -2.0196164 144.94
11.530275 8.0915937 -0.32704011 144.94
4.2088947 2.9536731 -2.0078394 144.94
34.131939 23.952745 0 144.94
4.4705105 3.1372671 -1.9878211 144.94
4.783143 3.3566632 -1.9744816 144.94
5.1353135 3.6038053 -1.9576328 144.94
5.5551023 3.8984003 -1.9459997 144.94
6.0767841 4.2645006 -1.9434516 144.94
6.6730585 4.6829476 -1.9316255 144.94
6.8536806 4.8097029 -1.7797241 144.94
6.6555901 4.6706886 -1.5319484 144.94
8.2710667 5.7699761 -1.6568717 145.10001
8.2256603 5.7382998 -1.4095452 145.10001
11.314805 7.8933172 -1.6133332 145.10001
11.664396 8.1371956 -1.3268684 145.10001
13.35391 9.3158169 -1.1385652 145.10001
3.7027738 2.5830908 -2.0100925 145.10001
20.719124 14.453861 -1.1780949 145.10001
3.9595094 2.762192 -2.0165329 145.10001
29.79137 20.782747 -0.84334099 145.10001
4.2140708 2.9397764 -2.0063844 145.10001
11.441118 7.9814348 0 145.10001
4.4761715 3.1226203 -1.9864529 145.10001
4.7956061 3.3454611 -1.975762 145.10001
32.939228 22.978724 1.8729333 145.10001
5.1406598 3.5861738 -1.9558456 145.10001
5.5612369 3.8795724 -1.944346 145.10001
6.0823216 4.2430863 -1.9414256 145.10001
6.6781292 4.6587272 -1.9293199 145.10001
6.7611909 4.7166719 -1.7522798 145.10001
6.6266966 4.6228476 -1.5223205 145.10001
8.2719479 5.7341785 -1.4145554 145.27
11.336542 7.8585787 -1.6131009 145.27
11.904517 8.2523041 -1.3513919 145.27
13.343779 9.2500114 -1.1353564 145.27
3.7074184 2.5700114 -2.0084655 145.27
20.761919 14.392323 -1.1780949 145.27
3.9661708 2.7493804 -2.0157621 145.27
4.2227745 2.9272602 -2.0063844 145.27
34.729561 24.074802 0 145.27
4.4869614 3.1103964 -1.9871371 145.27
4.7961679 3.3247409 -1.9719206 145.27
5.1559844 3.5741684 -1.9576328 145.27
5.5727229 3.8630548 -1.944346 145.27
6.1028352 4.2305326 -1.9439582 145.27
6.6951213 4.6411099 -1.9302422 145.27
6.7574701 4.6843309 -1.7477057 145.27
6.6533055 4.612123 -1.525283 145.27
8.2938185 5.7129803 -1.4153905 145.44
11.359809 7.8249083 -1.6131009 145.44
11.797754 8.1265755 -1.3365291 145.44
13.361307 9.2035875 -1.1345193 145.44
3.7240555 2.5652184 -2.0133464 145.44
20.765043 14.303458 -1.1758589 145.44
3.9773505 2.7396941 -2.0173037 145.44
13.375506 9.2133684 -0.37708256 145.44
4.2345099 2.9168317 -2.0078394 145.44
11.425692 7.8702893 0 145.44
4.4977179 3.0981357 -1.9878211 145.44
4.8153739 3.3169448 -1.975762 145.44
5.1634221 3.5566885 -1.9564413 145.44
5.5778275 3.8421409 -1.9421408 145.44
6.1137671 4.211309 -1.9434516 145.44
6.7120676 4.6234326 -1.9311644 145.44
6.808394 4.6897845 -1.7572696 145.44
6.6313519 4.5678339 -1.5171362 145.44
9.1325989 6.2485394 -1.8180195 145.62
8.2626886 5.6533456 -1.40704 145.62
11.861027 8.1153345 -1.3408022 145.62
13.385216 9.1581869 -1.1341008 145.62
3.7305882 2.5524747 -2.0125329 145.62
20.816471 14.242665 -1.1762315 145.62
3.9828918 2.7251012 -2.0157621 145.62
13.404385 9.1713028 -0.37708256 145.62
4.2482653 2.9066701 -2.0100217 145.62
34.93375 23.901731 0 145.62
4.5074286 3.0839903 -1.9878211 145.62
4.8226433 3.2996607 -1.9744816 145.62
5.1777215 3.5426059 -1.9576328 145.62
5.6041503 3.8343692 -1.9471023 145.62
6.1157894 4.1844335 -1.9399061 145.62
6.7088919 4.5902352 -1.926092 145.62
6.7698135 4.631918 -1.7435474 145.62
6.6797333 4.5702848 -1.5249126 145.62
8.4196434 5.7219839 -1.4306995 145.8
9.6359901 6.5486126 -1.3624477 145.8
11.897992 8.0858669 -1.3421026 145.8
13.384218 9.0959053 -1.1315895 145.8
3.7385886 2.5407422 -2.0125329 145.8
20.831371 14.156984 -1.1745545 145.8
4.0021176 2.7198365 -2.021158 145.8
13.507548 9.1797199 -0.37917155 145.8
4.2573757 2.8933096 -2.0100217 145.8
11.468299 7.793848 0 145.8
4.5155406 3.0687582 -1.9871371 145.8
4.8314185 3.2834284 -1.9738413 145.8
32.966343 22.403902 1.8587719 145.8
5.1904044 3.5273952 -1.9582286 145.8
5.5986776 3.8048575 -1.9410383 145.8
6.148108 4.1782498 -1.9459841 145.8
6.7264986 4.5713234 -1.9270144 145.8
6.7082849 4.5589457 -1.7240038 145.8
6.7850895 4.6111422 -1.5456496 145.8
9.1537189 6.1858907 -1.8151013 145.95
8.3902884 5.6699805 -1.4231842 145.95
9.6629772 6.5300364 -1.3638415 145.95
12.216108 8.2553892 -1.3755438 145.95
13.407986 9.0608339 -1.1315895 145.95
3.749769 2.5340149 -2.0149734 145.95
20.876638 14.107993 -1.1750203 145.95
4.0076957 2.7083163 -2.0203872 145.95
13.538161 9.1488047 -0.37935722 145.95
4.264936 2.882154 -2.0100217 145.95
34.996265 23.649738 0 145.95
4.5235591 3.0569263 -1.9871371 145.95
4.8399978 3.2707686 -1.9738413 145.95
32.993431 22.296267 1.8570018 145.95
5.1980395 3.5127258 -1.9576328 145.95
5.6277347 3.8031046 -1.9476535 145.95
6.1542163 4.1588898 -1.9444647 145.95
6.7142563 4.537353 -1.9200975 145.95
6.8158298 4.6059942 -1.7485373 145.95
6.6375504 4.485517 -1.5093598 145.95
9.1790991 6.1588006 -1.816074 146.14
8.435359 5.6597819 -1.4276377 146.14
9.6631336 6.4835687 -1.3608216 146.14
11.004854 7.3838081 -1.2363917 146.14
13.401509 8.9918661 -1.1285203 146.14
3.7566342 2.5205483 -2.0141599 146.14
13.278636 8.9094229 -0.74570751 146.14
4.0120568 2.6919267 -2.0180745 146.14
4.2698288 2.864881 -2.0078394 146.14
11.492756 7.7111707 0 146.14
4.5336714 3.0419087 -1.9871371 146.14
4.8523908 3.2557564 -1.9744816 146.14
32.989216 22.134417 1.8526229 146.14
5.1969762 3.4869592 -1.9528668 146.14
5.65628 3.7951331 -1.9531662 146.14
6.1663671 4.1373806 -1.9439582 146.14
6.7276497 4.5139785 -1.9196364 146.14
6.7465916 4.5266881 -1.7269145 146.14
6.6360674 4.4525309 -1.5056568 146.14
6.8048105 4.5365286 -1.3436549 146.31
8.4043255 5.6028695 -1.4195657 146.31
9.6872873 6.4581747 -1.3615185 146.31
13.391609 8.9277163 -1.125451 146.31
3.7671368 2.5114181 -2.0157869 146.31
4.0277042 2.6851292 -2.0219288 146.31
13.142863 8.7618866 -0.36673054 146.31
4.2829604 2.8552997 -2.0100217 146.31
35.661705 23.774408 0 146.31
4.5426769 3.0284436 -1.9871371 146.31
4.8525705 3.2350385 -1.9706402 146.31
5.1961794 3.4641109 -1.9486966 146.31
5.6371222 3.7580719 -1.942692 146.31
6.1721764 4.1147738 -1.9419321 146.31
6.7458711 4.4972358 -1.9210198 146.31
6.7485986 4.4990544 -1.7240038 146.31
6.7064857 4.4709792 -1.5186175 146.31
6.8133044 4.5130486 -1.3426821 146.48
8.5249357 5.6468124 -1.4371015 146.48
11.334353 7.5077357 -1.5898708 146.48
13.404733 8.8791294 -1.1243348 146.48
3.7654321 2.4941759 -2.010906 146.48
13.50116 8.9430017 -0.75521052 146.48
4.0341148 2.672148 -2.021158 146.48
