# .PCD v0.7 - Point Cloud Data file format
VERSION 0.7
FIELDS x y z intensity
SIZE 4 4 4 4
TYPE F F F F
COUNT 1 1 1 1
WIDTH 1171
HEIGHT 1
VIEWPOINT 0 0 0 1 0 0 0
POINTS 1171
DATA ascii
-39.998386 -28.215757 6.8793263 324.79999
-8.8033619 -6.2100883 -2.2899394 324.79999
-40.020012 -28.231012 8.0463657 324.79999
-10.129249 -7.1453986 -2.3355086 324.79999
-11.276713 -7.9048419 -2.2625539 324.97
-13.030884 -9.1344948 -2.2365117 324.97
-14.188994 -9.9463167 -2.026365 324.97
-15.301758 -10.726351 -1.7433958 324.97
-24.722992 -17.330524 -2.1112494 324.97
-3.8450189 -2.6953127 -2.0906262 324.97
-24.735191 -17.339075 -1.4086828 324.97
-4.0983047 -2.8728631 -2.090534 324.97
-24.75049 -17.3498 -0.70175517 324.97
-4.3980799 -3.0830019 -2.0973191 324.97
-24.737507 -17.340698 0 324.97
-4.741467 -3.3237121 -2.1075282 324.97
-39.91481 -27.979809 1.131712 324.97
-5.1603689 -3.6173575 -2.1294181 324.97
-42.208511 -29.587664 2.4037981 324.97
-5.6265311 -3.9441316 -2.1441023 324.97
-39.939404 -27.997047 3.4106731 324.97
-6.2199068 -4.3600807 -2.1780863 324.97
-39.981224 -28.026363 4.5552349 324.97
-6.9218717 -4.85215 -2.2129111 324.97
-42.349014 -29.686157 6.047967 324.97
-7.7989841 -5.4669952 -2.2567141 324.97
-40.015434 -28.050344 6.8679142 324.97
-8.8265543 -6.1873097 -2.2911868 324.97
-40.000172 -28.039646 8.0256138 324.97
-10.161671 -7.1232104 -2.3381007 324.97
-11.277446 -7.8555565 -2.2580144 325.14001
-13.049803 -9.0901308 -2.2351201 325.14001
-14.195622 -9.8882771 -2.0231128 325.14001
-14.30736 -9.9661102 -1.6267235 325.14001
-24.877441 -17.328936 -2.1200387 325.14001
-3.8529992 -2.6838925 -2.0906262 325.14001
-24.889805 -17.337549 -1.4145523 325.14001
-4.108325 -2.8617454 -2.091305 325.14001
-24.918346 -17.35743 -0.70505106 325.14001
-4.4056792 -3.0688741 -2.0965917 325.14001
-24.902084 -17.346102 0 325.14001
-4.7466812 -3.3064065 -2.1054759 325.14001
-39.910698 -27.800686 1.1292516 325.14001
-5.1695242 -3.6009474 -2.128778 325.14001
-42.481354 -29.591335 2.414326 325.14001
-5.6366425 -3.9263289 -2.1435068 325.14001
-39.940441 -27.821404 3.4036975 325.14001
-6.2312384 -4.340508 -2.1775351 325.14001
-39.974335 -27.845013 4.5450168 325.14001
-6.9378257 -4.8326969 -2.2134178 325.14001
-42.593388 -29.669374 6.0702677 325.14001
-7.821558 -5.4482803 -2.2585585 325.14001
-40.005852 -27.866968 6.8520484 325.14001
-8.8432684 -6.1599755 -2.290771 325.14001
-39.994125 -27.858799 8.007781 325.14001
-10.17631 -7.0885353 -2.3366194 325.14001
-11.26825 -7.7995968 -2.2515297 325.31
-13.07346 -9.0491171 -2.2345634 325.31
-14.246133 -9.8608122 -2.0261328 325.31
-15.311106 -10.59796 -1.737265 325.31
-25.045221 -17.335667 -2.1299441 325.31
-3.8669548 -2.6766081 -2.0938802 325.31
-25.061054 -17.346626 -1.4213535 325.31
-4.1183152 -2.8505933 -2.0920758 325.31
-25.089752 -17.366489 -0.70843989 325.31
-4.4117017 -3.0536683 -2.0951366 325.31
-25.052111 -17.340437 0 325.31
-4.7549253 -3.2912388 -2.1047919 325.31
-39.910805 -27.625248 1.1269305 325.31
-5.1801858 -3.5855932 -2.128778 325.31
-42.74638 -29.587959 2.4243879 325.31
-5.6561165 -3.9150202 -2.1464853 325.31
-39.942429 -27.647137 3.3968613 325.31
-6.247251 -4.3241887 -2.1786377 325.31
-39.947071 -27.650349 4.5325689 325.31
-6.9521337 -4.8120909 -2.2134178 325.31
-42.900101 -29.694363 6.1013961 325.31
-7.8376889 -5.4250493 -2.2585585 325.31
-39.975994 -27.67037 6.8328424 325.31
-8.8647232 -6.1359367 -2.2916026 325.31
-39.995472 -27.683851 7.9915686 325.31
-10.200529 -7.0605474 -2.3373601 325.31
-11.273456 -7.7538266 -2.247963 325.48001
-13.100251 -9.0102873 -2.2345634 325.48001
-14.250777 -9.8016138 -2.0226483 325.48001
-15.294902 -10.519758 -1.7318772 325.48001
-25.211617 -17.340424 -2.1397102 325.48001
-3.8748794 -2.6651227 -2.0938802 325.48001
-25.222698 -17.348047 -1.4275957 325.48001
-4.1221933 -2.8352242 -2.0897632 325.48001
-25.251545 -17.367887 -0.71155012 325.48001
-4.4253478 -3.0437322 -2.0973191 325.48001
-25.222097 -17.347633 0 325.48001
-4.7724118 -3.2824414 -2.1082122 325.48001
-39.901989 -27.444389 1.1243773 325.48001
-5.1829958 -3.5648389 -2.1255767 325.48001
-43.028217 -29.594593 2.4353817 325.48001
-5.6708536 -3.9003849 -2.1476769 325.48001
-39.924007 -27.459536 3.388351 325.48001
-6.2616377 -4.3067231 -2.179189 325.48001
-39.968227 -27.489948 4.5256948 325.48001
-6.9679751 -4.7925386 -2.2139242 325.48001
-43.174603 -29.695276 6.1278787 325.48001
-7.8521476 -5.4006681 -2.2580974 325.48001
-39.964905 -27.487663 6.816977 325.48001
-8.8845015 -6.1107163 -2.2920184 325.48001
-40.001011 -27.512495 7.9763293 325.48001
-10.223053 -7.0313649 -2.3377304 325.48001
-11.279834 -7.7061257 -2.2443964 325.66
-13.121952 -8.9646187 -2.2334499 325.66
-14.286421 -9.7601576 -2.0233452 325.66
-14.412018 -9.8459625 -1.6283957 325.66
-25.374697 -17.335415 -2.1489179 325.66
-3.8802156 -2.6508751 -2.0922532 325.66
-25.379351 -17.338594 -1.433372 325.66
-4.1326041 -2.8233008 -2.090534 325.66
-25.423203 -17.368553 -0.71484607 325.66
-4.4302731 -3.0266619 -2.0951366 325.66
-25.387115 -17.343899 0 325.66
-4.7780452 -3.2642517 -2.1061599 325.66
-39.898857 -27.257992 1.1218705 325.66
-5.2035565 -3.5549514 -2.1294181 325.66
-39.986706 -27.318007 2.2583644 325.66
-5.6736202 -3.8760884 -2.1441023 325.66
-39.949123 -27.292334 3.383189 325.66
-6.2735491 -4.2859459 -2.1786377 325.66
-39.955738 -27.29685 4.5145478 325.66
-6.9845943 -4.7717161 -2.2144306 325.66
-40.011818 -27.335163 5.6667604 325.66
-7.8738961 -5.3792663 -2.2594807 325.66
-39.970932 -27.30723 6.8033381 325.66
-8.9068861 -6.0849819 -2.29285 325.66
-39.992729 -27.322123 7.9575233 325.66
-10.24996 -7.0025396 -2.3388412 325.66
-11.289586 -7.6637564 -2.2418025 325.82999
-13.143577 -8.9223089 -2.232615 325.82999
-14.216703 -9.6507835 -2.009407 325.82999
-15.401715 -10.455211 -1.7367076 325.82999
-25.548172 -17.342972 -2.1592419 325.82999
-3.8835289 -2.636272 -2.0898128 325.82999
-25.556309 -17.348495 -1.4404527 325.82999
-4.1409626 -2.8110268 -2.090534 325.82999
-25.573881 -17.360424 -0.71763134 325.82999
-4.4376926 -3.0124571 -2.0944092 325.82999
-25.536095 -17.334774 0 325.82999
-4.7908192 -3.2521718 -2.1075282 325.82999
-39.910076 -27.092323 1.1199208 325.82999
-5.2187843 -3.5426891 -2.1313388 325.82999
-39.922123 -27.100502 2.2501659 325.82999
-5.6898351 -3.8624542 -2.1458898 325.82999
-39.927582 -27.104206 3.3745391 325.82999
-6.2894197 -4.2694726 -2.1797402 325.82999
-39.96241 -27.127848 4.5061879 325.82999
-7.0019231 -4.7531447 -2.2154436 325.82999
-39.961262 -27.127069 5.6481762 325.82999
-7.8946524 -5.3591595 -2.260864 325.82999
-39.971481 -27.134007 6.7896991 325.82999
-8.924901 -6.0585279 -2.29285 325.82999
-39.990345 -27.146812 7.9409871 325.82999
-10.270692 -6.9720964 -2.3388412 325.82999
-11.294277 -7.6180863 -2.238236 326
-13.16835 -8.882164 -2.2323365 326
-14.255157 -9.6152248 -2.0108008 326
-14.825135 -9.9996805 -1.6683391 326
-25.721916 -17.349651 -2.1695659 326
-3.8989074 -2.6298461 -2.0938802 326
-25.733547 -17.357496 -1.4475334 326
-4.1492848 -2.798728 -2.090534 326
-25.72142 -17.349318 -0.7203238 326
-4.4466109 -2.9992771 -2.0944092 326
-25.713428 -17.343927 0 326
-4.8020058 -3.2389936 -2.1082122 326
-39.902431 -26.91453 1.1174605 326
-5.218277 -3.5197723 -2.1268573 326
-39.919544 -26.926071 2.2455075 326
-5.7076011 -3.8498256 -2.1482728 326
-39.920162 -26.926489 3.3671451 326
-6.3004661 -4.2497177 -2.179189 326
-39.976688 -26.964617 4.4987564 326
-7.0175991 -4.7334304 -2.2159503 326
-39.959232 -26.952843 5.6365609 326
-7.908905 -5.3346238 -2.2604029 326
-39.96479 -26.956593 6.7749467 326
-8.9460821 -6.0342083 -2.2936819 326
-39.99218 -26.975065 7.9254236 326
-10.291333 -6.9415922 -2.3388412 326
-11.296153 -7.5763993 -2.2346692 326.14999
-13.194848 -8.849865 -2.2328932 326.14999
-14.398118 -9.6569061 -1.6174344 326.14999
-25.884893 -17.361156 -2.1794713 326.14999
-3.9027441 -2.6175945 -2.0922532 326.14999
-25.893385 -17.366852 -1.453962 326.14999
-4.1581302 -2.7888837 -2.091305 326.14999
-25.922844 -17.386612 -0.7246874 326.14999
-4.4575424 -2.989701 -2.0958643 326.14999
-39.857292 -26.732531 0 326.14999
-4.8120298 -3.2274578 -2.1088963 326.14999
-39.893051 -26.756514 1.1152322 326.14999
-5.2274742 -3.506099 -2.1268573 326.14999
-39.901962 -26.762491 2.2405696 326.14999
-5.711318 -3.830616 -2.1458898 326.14999
-39.912643 -26.769655 3.3605878 326.14999
-6.31636 -4.2364216 -2.1808429 326.14999
-39.952877 -26.79664 4.4881668 326.14999
-7.0347881 -4.7182755 -2.2174697 326.14999
-39.957069 -26.799452 5.6263399 326.14999
-7.9293089 -5.3182364 -2.2622476 326.14999
-39.95134 -26.79561 6.7607508 326.14999
-8.9683475 -6.0151258 -2.2953451 326.14999
-39.980713 -26.81531 7.9092116 326.14999
-10.309471 -6.9146256 -2.3388412 326.14999
-11.311687 -7.5354033 -2.233048 326.32999
-13.220937 -8.807271 -2.232615 326.32999
-14.245824 -9.4900103 -2.0017412 326.32999
-26.052216 -17.354967 -2.1889582 326.32999
-3.9063864 -2.6022818 -2.0898128 326.32999
-26.054228 -17.356308 -1.4599246 326.32999
-4.1653357 -2.7747836 -2.090534 326.32999
-26.092157 -17.381575 -0.72789049 326.32999
-4.4576101 -2.9694853 -2.0914993 326.32999
-39.864513 -26.556179 0 326.32999
-4.820581 -3.2112825 -2.1082122 326.32999
-39.888718 -26.572304 1.1127719 326.32999
-5.2510781 -3.4980628 -2.1319792 326.32999
-39.896057 -26.577192 2.2355387 326.32999
-5.7312689 -3.8179469 -2.1488683 326.32999
-39.903561 -26.582191 3.3527751 326.32999
-6.329638 -4.216557 -2.1808429 326.32999
-39.945713 -26.610271 4.4779487 326.32999
-7.0399146 -4.6897159 -2.2144306 326.32999
-39.943523 -26.608812 5.6126342 326.32999
-7.9475975 -5.2943783 -2.2627087 326.32999
-39.966095 -26.62385 6.7490602 326.32999
-8.982316 -5.9836674 -2.2940977 326.32999
-39.969494 -26.626114 7.8904057 326.32999
-10.329508 -6.881114 -2.3384709 326.32999
-11.327413 -7.4974508 -2.231751 326.5
-13.248662 -8.7690983 -2.2328932 326.5
-14.515765 -9.6077757 -2.0356572 326.5
-26.225046 -17.357979 -2.1991427 326.5
-3.9110432 -2.5886631 -2.088186 326.5
-26.230558 -17.361628 -1.4669122 326.5
-4.1735501 -2.7624125 -2.090534 326.5
-26.27033 -17.387953 -0.73141855 326.5
-4.4772758 -2.9634442 -2.0965917 326.5
-39.858074 -26.381483 0 326.5
-4.831655 -3.1980028 -2.1088963 326.5
-39.889019 -26.401966 1.1105901 326.5
-5.2582741 -3.4803755 -2.1306987 326.5
-39.898102 -26.407978 2.2312529 326.5
-5.7393875 -3.7988176 -2.1476769 326.5
-39.914043 -26.41853 3.3470552 326.5
-6.3437238 -4.1988192 -2.1813941 326.5
-39.951427 -26.443272 4.4697742 326.5
-7.057025 -4.6709433 -2.2154436 326.5
-39.939472 -26.435362 5.6010189 326.5
-7.9600253 -5.2686257 -2.2617865 326.5
-39.957382 -26.447214 6.7343082 326.5
-9.0049238 -5.9602294 -2.2953451 326.5
-39.974262 -26.458387 7.8758144 326.5
-10.354795 -6.8536897 -2.339582 326.5
-11.347612 -7.4596596 -2.2311025 326.67999
-13.27118 -8.7241688 -2.2320583 326.67999
-14.69029 -9.6570587 -2.0558674 326.67999
-15.749809 -10.353563 -1.7584443 326.67999
-26.396149 -17.352222 -2.2089086 326.67999
-3.9237366 -2.5793743 -2.0906262 326.67999
-26.426872 -17.372417 -1.4748313 326.67999
-4.1791234 -2.7472599 -2.0889924 326.67999
-26.428415 -17.373432 -0.73429668 326.67999
-4.4834499 -2.9473171 -2.0951366 326.67999
-39.857197 -26.201204 0 326.67999
-4.8448191 -3.1848726 -2.1102643 326.67999
-39.891571 -26.223801 1.1083618 326.67999
-5.2612653 -3.4586351 -2.1274974 326.67999
-39.904076 -26.232023 2.2269673 326.67999
-5.7496982 -3.7797194 -2.1470811 326.67999
-39.911816 -26.237112 3.3399401 326.67999
-6.3600965 -4.1809812 -2.1824965 326.67999
-39.956093 -26.266218 4.4610424 326.67999
-7.0797482 -4.6540637 -2.2179761 326.67999
-39.94265 -26.25738 5.5898685 326.67999
-7.9749117 -5.2425237 -2.2613251 326.67999
-39.954212 -26.264982 6.7198339 326.67999
-9.0236044 -5.93191 -2.2953451 326.67999
-39.981327 -26.282806 7.8608994 326.67999
-10.377918 -6.8222051 -2.3399522 326.67999
-11.362729 -7.4185786 -2.2294812 326.85999
-13.295206 -8.6802683 -2.2315016 326.85999
-14.928473 -9.7466068 -2.0849051 326.85999
-14.853498 -9.6976566 -1.6549627 326.85999
-26.577497 -17.352104 -2.2195115 326.85999
-3.9318206 -2.5670347 -2.0906262 326.85999
-26.595072 -17.363579 -1.4811666 326.85999
-4.1892791 -2.735126 -2.0897632 326.85999
-26.63522 -17.38979 -0.73852104 326.85999
-4.491127 -2.9321988 -2.0944092 326.85999
-39.857254 -26.022285 0 326.85999
-4.8516531 -3.1675816 -2.1088963 326.85999
-39.89172 -26.044788 1.1060872 326.85999
-5.2752781 -3.4441609 -2.128778 326.85999
-39.911011 -26.057383 2.2227747 326.85999
-5.7647414 -3.763725 -2.1482728 326.85999
-39.932236 -26.071239 3.3347781 326.85999
-6.3715901 -4.1599288 -2.1819453 326.85999
-39.961712 -26.090485 4.4524961 326.85999
-7.0927143 -4.6307416 -2.2174697 326.85999
-39.961735 -26.0905 5.5810409 326.85999
-7.9962311 -5.2206359 -2.2627087 326.85999
-39.970196 -26.096024 6.7087002 326.85999
-9.0405569 -5.902463 -2.2949293 326.85999
-39.982727 -26.104204 7.8450117 326.85999
-10.404237 -6.7927914 -2.341063 326.85999
-11.381745 -7.3857446 -2.229157 327.01999
-13.319394 -8.6431074 -2.2315016 327.01999
-14.580701 -9.4615831 -2.0326371 327.01999
-14.94734 -9.6995001 -1.662394 327.01999
-25.004099 -16.225445 -2.0843234 327.01999
-3.9374411 -2.5550506 -2.0898128 327.01999
-24.997723 -16.221308 -1.3896768 327.01999
-4.1984487 -2.7244213 -2.090534 327.01999
-25.026535 -16.240004 -0.69265652 327.01999
-4.5039864 -2.9226882 -2.0965917 327.01999
-25.028246 -16.241116 0 327.01999
-4.8604798 -3.154021 -2.1088963 327.01999
-39.882111 -25.879955 1.1038126 327.01999
-5.2928228 -3.4345732 -2.1319792 327.01999
-40.012112 -25.964315 2.2243586 327.01999
-5.7800336 -3.75073 -2.1500599 327.01999
-39.91618 -25.902065 3.3273838 327.01999
-6.3864074 -4.1442127 -2.1830478 327.01999
-39.949223 -25.923506 4.4430213 327.01999
-7.1088643 -4.6130233 -2.2184827 327.01999
-40.066097 -25.99935 5.5854549 327.01999
-8.007513 -5.196167 -2.2617865 327.01999
-39.951538 -25.925009 6.6933913 327.01999
-9.0586462 -5.8782587 -2.2953451 327.01999
-39.967724 -25.935513 7.827827 327.01999
-10.421516 -6.762641 -2.3406928 327.01999
-11.39328 -7.3424678 -2.2268875 327.20001
-13.344816 -8.6001472 -2.2312231 327.20001
-14.571949 -9.3909798 -2.0272944 327.20001
-15.345988 -9.8898144 -1.7032665 327.20001
-25.007992 -16.11655 -2.0804172 327.20001
-3.9454486 -2.5426681 -2.0898128 327.20001
-24.994823 -16.108065 -1.3866955 327.20001
-4.2100897 -2.7132175 -2.0920758 327.20001
-25.037094 -16.135305 -0.69154239 327.20001
-4.5147119 -2.9095333 -2.0973191 327.20001
-25.04048 -16.137487 0 327.20001
-4.8703647 -3.1387358 -2.1088963 327.20001
-39.889267 -25.706879 1.10177 327.20001
-5.3051791 -3.4189548 -2.1326194 327.20001
-40.110275 -25.849308 2.2252903 327.20001
-5.786974 -3.7294502 -2.1482728 327.20001
-39.913506 -25.7225 3.3204081 327.20001
-6.3993955 -4.1241288 -2.1830478 327.20001
-39.951794 -25.747173 4.4342895 327.20001
-7.1249475 -4.5917153 -2.2189891 327.20001
-40.179306 -25.893795 5.5898685 327.20001
-8.0287056 -5.1741476 -2.2631698 327.20001
-39.979511 -25.765038 6.684484 327.20001
-9.0803566 -5.8518906 -2.2961767 327.20001
-39.956108 -25.749954 7.8096695 327.20001
-10.446014 -6.731997 -2.3414333 327.20001
-11.398395 -7.2979898 -2.223645 327.37
-13.375278 -8.5637188 -2.2320583 327.37
-14.512755 -9.2920046 -2.0152147 327.37
-15.603344 -9.9902697 -1.7285331 327.37
-25.008654 -16.012157 -2.0765107 327.37
-3.956053 -2.5329208 -2.0914397 327.37
-24.986984 -15.998282 -1.383621 327.37
-4.21035 -2.6957386 -2.0882215 327.37
-25.029291 -16.02537 -0.69001049 327.37
-4.5201869 -2.8941159 -2.0958643 327.37
-25.012455 -16.014591 0 327.37
-4.8828216 -3.1262982 -2.1102643 327.37
-39.884537 -25.536661 1.0995418 327.37
-5.3073215 -3.3980906 -2.1294181 327.37
-40.29784 -25.801285 2.2314394 327.37
-5.80123 -3.7143226 -2.1494641 327.37
-39.900597 -25.546944 3.313014 327.37
-6.4148421 -4.1071968 -2.1841505 327.37
-39.93074 -25.566244 4.4235139 327.37
-7.1352816 -4.5684686 -2.2179761 327.37
-40.361351 -25.841948 5.6045036 327.37
-8.0440226 -5.1503034 -2.2631698 327.37
-39.955708 -25.582228 6.6677833 327.37
-9.0993271 -5.8259778 -2.2965925 327.37
-39.980808 -25.598299 7.7996178 327.37
-10.462632 -6.698854 -2.3406928 327.37
-11.412939 -7.2568498 -2.2220237 327.54999
-13.39376 -8.5163431 -2.2306664 327.54999
-15.351526 -9.761178 -2.1274161 327.54999
-14.880142 -9.4614506 -1.6451162 327.54999
-25.01001 -15.902467 -2.0724649 327.54999
-3.9609072 -2.5185194 -2.0898128 327.54999
-25.003403 -15.898266 -1.3817576 327.54999
-4.2265849 -2.6874492 -2.0920758 327.54999
-25.037331 -15.919839 -0.68884999 327.54999
-4.5324011 -2.8819003 -2.0973191 327.54999
-25.015387 -15.905886 0 327.54999
-4.8878613 -3.1079175 -2.1082122 327.54999
-39.890327 -25.364029 1.0974993 327.54999
-5.3195696 -3.382417 -2.1300585 327.54999
-5.8144813 -3.6971035 -2.1500599 327.54999
-39.898163 -25.369011 3.3061779 327.54999
-6.4260912 -4.0859923 -2.1835992 327.54999
-39.953728 -25.404343 4.4171972 327.54999
-7.1577621 -4.5512209 -2.2205088 327.54999
-8.0683737 -5.130228 -2.2654753 327.54999
-39.9473 -25.400253 6.6530309 327.54999
-9.1142836 -5.7952633 -2.2957609 327.54999
-39.969433 -25.41433 7.7817845 327.54999
-10.485285 -6.667006 -2.341063 327.54999
-11.429415 -7.2197933 -2.221051 327.72
-13.415621 -8.4744501 -2.2301097 327.72
-24.986092 -15.783347 -2.7572184 327.72
-25.008165 -15.797291 -2.068419 327.72
-3.9683623 -2.5067561 -2.0898128 327.72
-24.999792 -15.792001 -1.3789626 327.72
-4.2314196 -2.6729255 -2.090534 327.72
-25.047266 -15.821989 -0.68782866 327.72
-4.5330563 -2.8634651 -2.0936818 327.72
-25.008362 -15.797414 0 327.72
-4.9034166 -3.0974162 -2.1109483 327.72
-39.874123 -25.187899 1.0949924 327.72
-5.3295822 -3.3666186 -2.1300585 327.72
-42.197811 -26.655737 2.3275876 327.72
-5.8318815 -3.6839139 -2.1524429 327.72
-39.885544 -25.195112 3.2989233 327.72
-6.4463134 -4.072041 -2.1863556 327.72
-39.929596 -25.22294 4.4062362 327.72
-7.1695986 -4.5289297 -2.2200022 327.72
-45.713001 -28.876232 6.3230119 327.72
-8.0819149 -5.1052265 -2.2650142 327.72
-39.948811 -25.235077 6.6407838 327.72
-9.1380539 -5.7723746 -2.2974241 327.72
-39.977924 -25.253466 7.768815 327.72
-10.508343 -6.6379657 -2.3418038 327.72
-11.442845 -7.183651 -2.219754 327.88
-13.444265 -8.4401131 -2.2309449 327.88
-15.193826 -9.5384617 -2.097914 327.88
-24.969355 -15.675395 -2.7505302 327.88
-25.009939 -15.700873 -2.0649312 327.88
-3.978442 -2.4976075 -2.0914397 327.88
-24.994724 -15.691322 -1.3762608 327.88
-4.2373042 -2.6601176 -2.0897632 327.88
-25.018534 -15.706269 -0.68583256 327.88
-4.5410352 -2.8507953 -2.0936818 327.88
-25.011724 -15.701995 0 327.88
-4.9104552 -3.0827119 -2.1102643 327.88
-39.87149 -25.030737 1.0929964 327.88
-5.3469863 -3.3567598 -2.1332595 327.88
-42.490356 -26.674822 2.339606 327.88
-5.8356786 -3.6635535 -2.1500599 327.88
-39.901676 -25.049686 3.2944586 327.88
-6.4544029 -4.0519795 -2.1852529 327.88
-39.939163 -25.073221 4.3995481 327.88
-7.183856 -4.5099196 -2.2205088 327.88
-45.727848 -28.707273 6.313952 327.88
-8.0928431 -5.0805683 -2.264092 327.88
-39.940289 -25.073927 6.6277013 327.88
-9.1557951 -5.7478738 -2.2978401 327.88
-39.974743 -25.095558 7.7545485 327.88
-10.531833 -6.6117301 -2.3429146 327.88
-11.459905 -7.1414905 -2.2184572 328.07001
-13.468819 -8.3933887 -2.2303882 328.07001
-16.730883 -10.426216 -2.3053591 328.07001
-24.990778 -15.57355 -2.7471862 328.07001
-25.01107 -15.586195 -2.0607457 328.07001
-3.9789491 -2.4795692 -2.0873725 328.07001
-24.999146 -15.578765 -1.3736521 328.07001
-4.2461023 -2.6460516 -2.0897632 328.07001
-25.033148 -15.599954 -0.68481129 328.07001
-4.556788 -2.8396623 -2.0965917 328.07001
-25.002552 -15.580887 0 328.07001
-4.922246 -3.0674052 -2.1109483 328.07001
-39.866035 -24.843391 1.0905824 328.07001
-5.3596964 -3.3400121 -2.1338999 328.07001
-42.782043 -26.660566 2.350786 328.07001
-5.8558969 -3.6492302 -2.1530387 328.07001
-39.910019 -24.870802 3.2883201 328.07001
-6.4661727 -4.0295367 -2.1847017 328.07001
-39.951107 -24.896406 4.3917451 328.07001
-7.198772 -4.4860725 -2.2205088 328.07001
-45.757042 -28.514503 6.3048921 328.07001
-8.1162529 -5.0578208 -2.2659364 328.07001
-39.950939 -24.896301 6.6157327 328.07001
-9.176466 -5.7185154 -2.2982559 328.07001
-39.960598 -24.902321 7.7357426 328.07001
-10.553699 -6.5767689 -2.3429146 328.07001
-11.481481 -7.1104994 -2.2187815 328.23001
-13.48547 -8.351573 -2.2292747 328.23001
-16.737978 -10.365857 -2.3023391 328.23001
-24.979994 -15.470151 -2.741241 328.23001
-25.013788 -15.491079 -2.0573974 328.23001
-3.9920712 -2.4722962 -2.0906262 328.23001
-25.003487 -15.4847 -1.3715092 328.23001
-4.2597508 -2.6380706 -2.0928466 328.23001
-25.030716 -15.501563 -0.68355787 328.23001
-4.5694518 -2.8298688 -2.0987742 328.23001
-25.006855 -15.486786 0 328.23001
-4.9323902 -3.0546374 -2.1116323 328.23001
-39.87236 -24.693016 1.0888648 328.23001
-5.3609486 -3.320044 -2.1306987 328.23001
-43.077129 -26.677736 2.3628976 328.23001
-5.8611951 -3.6298475 -2.1512513 328.23001
-39.8979 -24.708834 3.2816236 328.23001
-6.4773998 -4.0114641 -2.1847017 328.23001
-39.940903 -24.735466 4.3830132 328.23001
-7.2079816 -4.4639149 -2.2194958 328.23001
-45.740231 -28.326998 6.2916512 328.23001
-8.132 -5.0361609 -2.2663975 328.23001
-39.947903 -24.739801 6.6037636 328.23001
-9.1874094 -5.6897774 -2.2970083 328.23001
-39.951122 -24.741795 7.7205033 328.23001
-10.572024 -6.5472717 -2.3429146 328.23001
-11.507125 -7.0764623 -2.21943 328.41
-13.508266 -8.3070908 -2.228718 328.41
-16.690931 -10.264315 -2.2914209 328.41
-24.977585 -15.360304 -2.7356675 328.41
-25.013046 -15.382112 -2.0533516 328.41
-3.9998186 -2.4597425 -2.0906262 328.41
-25.002659 -15.375724 -1.3688074 328.41
-4.2633014 -2.6217749 -2.090534 328.41
-25.029902 -15.392476 -0.6822117 328.41
-4.5799065 -2.8164754 -2.0995016 328.41
-25.014498 -15.383004 0 328.41
-4.9419627 -3.0391269 -2.1116323 328.41
-39.878204 -24.523642 1.0869151 328.41
-5.3794222 -3.3081484 -2.1338999 328.41
-43.336014 -26.650068 2.372494 328.41
-5.8741961 -3.6124163 -2.1518471 328.41
-39.902248 -24.538429 3.2756245 328.41
-6.4916081 -3.9921021 -2.1852529 328.41
-39.94717 -24.566053 4.3752103 328.41
-7.2285624 -4.4453025 -2.2215216 328.41
-45.763004 -28.142578 6.2825913 328.41
-8.142808 -5.0075302 -2.2650142 328.41
-39.937702 -24.56023 6.5892897 328.41
-9.2119045 -5.6649857 -2.2986717 328.41
-39.944599 -24.564472 7.7042913 328.41
-10.592541 -6.5140266 -2.3429146 328.41
-11.523473 -7.0422425 -2.2187815 328.57001
-13.528031 -8.267271 -2.2281613 328.57001
-16.80089 -10.267385 -2.3025715 328.57001
-24.977901 -15.264533 -2.7310228 328.57001
-25.008236 -15.283072 -2.0494452 328.57001
-4.0066719 -2.4485633 -2.0906262 328.57001
-24.996061 -15.275632 -1.3661056 328.57001
-4.267457 -2.6079347 -2.0889924 328.57001
-25.031841 -15.297497 -0.68109757 328.57001
-4.5829844 -2.8007605 -2.0973191 328.57001
-25.014694 -15.287018 0 328.57001
-4.9504299 -3.0253143 -2.1116323 328.57001
-39.871464 -24.36631 1.0848725 328.57001
-5.3789387 -3.2871852 -2.1300585 328.57001
-43.667675 -26.686256 2.3865621 328.57001
-5.88589 -3.5969939 -2.1524429 328.57001
-39.895714 -24.381128 3.269486 328.57001
-6.5027308 -3.9739587 -2.1852529 328.57001
-39.939156 -24.407677 4.3668499 328.57001
-7.2392969 -4.4240899 -2.2210152 328.57001
-45.746494 -27.956667 6.2695823 328.57001
-8.1584206 -4.9857864 -2.2654753 328.57001
-39.931774 -24.403166 6.5770426 328.57001
-9.2276878 -5.6392388 -2.2986717 328.57001
-39.945683 -24.411667 7.6913214 328.57001
-10.61069 -6.4844213 -2.3429146 328.57001
-11.549378 -7.0110927 -2.219754 328.73999
-13.552501 -8.2270966 -2.2281613 328.73999
-24.982227 -15.165554 -2.7265642 328.73999
-25.004013 -15.17878 -2.0453994 328.73999
-4.0123572 -2.4357164 -2.0898128 328.73999
-25.001997 -15.177555 -1.3639628 328.73999
-4.2783308 -2.5971768 -2.090534 328.73999
-25.025843 -15.192032 -0.6797049 328.73999
-4.5944595 -2.7890837 -2.0987742 328.73999
-25.015491 -15.185747 0 328.73999
-4.9593844 -3.0106127 -2.1116323 328.73999
-39.861542 -24.198099 1.0826443 328.73999
-5.4000058 -3.2780938 -2.1345401 328.73999
-39.89048 -24.215664 2.1761913 328.73999
-5.8998003 -3.5814958 -2.1536343 328.73999
-39.892838 -24.217094 3.2633474 328.73999
-6.5161362 -3.9556448 -2.1858041 328.73999
-39.933094 -24.241533 4.358304 328.73999
-7.2573533 -4.4056034 -2.2225347 328.73999
-39.925049 -24.236649 5.4618702 328.73999
-8.1765051 -4.9635777 -2.2663975 328.73999
-39.937977 -24.244497 6.5661869 328.73999
-9.2427073 -5.6108198 -2.2982559 328.73999
-39.947083 -24.250025 7.6777034 328.73999
-10.629883 -6.4529099 -2.3429146 328.73999
-11.567222 -6.9777942 -2.21943 328.89999
-13.570335 -8.1861496 -2.2273264 328.89999
-24.971622 -15.063846 -2.7208047 328.89999
-25.010427 -15.087255 -2.0424695 328.89999
-4.0175791 -2.4235587 -2.0889995 328.89999
-25.008358 -15.086006 -1.3620062 328.89999
-4.2824063 -2.5833127 -2.0889924 328.89999
-25.025368 -15.096267 -0.67854434 328.89999
-4.5974445 -2.773356 -2.0965917 328.89999
-25.011562 -15.087938 0 328.89999
-4.9645538 -2.9948103 -2.1102643 328.89999
-39.87075 -24.051575 1.081066 328.89999
-5.4075165 -3.2620225 -2.1338999 328.89999
-39.845043 -24.036066 2.1700423 328.89999
-5.908144 -3.5640204 -2.1530387 328.89999
-39.888557 -24.062315 3.2574878 328.89999
-6.5304494 -3.939419 -2.1869068 328.89999
-39.922195 -24.082609 4.3497577 328.89999
-7.2729411 -4.3873186 -2.2235477 328.89999
-39.917732 -24.079916 5.4516492 328.89999
-8.1920004 -4.9417305 -2.2668586 328.89999
-39.925819 -24.084793 6.5531044 328.89999
-9.2566643 -5.5839767 -2.2978401 328.89999
-39.930149 -24.087406 7.6614914 328.89999
-10.651228 -6.4252315 -2.3436551 328.89999
-11.588604 -6.9383836 -2.2191057 329.09
-13.594008 -8.1390686 -2.2267697 329.09
-17.024614 -10.193058 -2.3204587 329.09
-24.980433 -14.956403 -2.716346 329.09
-25.014103 -14.976562 -2.0387027 329.09
-4.0208907 -2.4074068 -2.0865591 329.09
-24.99654 -14.966047 -1.3586522 329.09
-4.2877827 -2.5672016 -2.0874507 329.09
-25.027258 -14.984438 -0.67724454 329.09
-4.6114111 -2.7609661 -2.0987742 329.09
-25.011694 -14.975121 0 329.09
-4.9760704 -2.9792962 -2.1109483 329.09
-39.86623 -23.868898 1.0787913 329.09
-5.4166784 -3.2430995 -2.1332595 329.09
-39.876537 -23.875069 2.1674337 329.09
-5.9199305 -3.5444088 -2.1530387 329.09
-39.877407 -23.875589 3.2500937 329.09
-6.5418277 -3.916754 -2.1863556 329.09
-39.931789 -23.90815 4.3421407 329.09
-7.2808099 -4.359201 -2.2215216 329.09
-39.927486 -23.905573 5.4421248 329.09
-8.2150221 -4.9185367 -2.2687032 329.09
-39.925602 -23.904446 6.5400224 329.09
-9.2784872 -5.5552597 -2.2986717 329.09
-39.947159 -23.917351 7.6494942 329.09
-10.682593 -6.3959327 -2.3458769 329.09
-11.606238 -6.9049864 -2.2187815 329.25
-13.614982 -8.1000624 -2.2264912 329.25
-17.04277 -10.139382 -2.3190649 329.25
-24.97076 -14.856041 -2.7107725 329.25
-24.985529 -14.864827 -2.0329826 329.25
-4.0385895 -2.4027083 -2.0922532 329.25
-25.00218 -14.874734 -1.3566958 329.25
-4.2981071 -2.5571051 -2.0889924 329.25
-25.024328 -14.887911 -0.67603761 329.25
-4.6143003 -2.7452202 -2.0965917 329.25
-25.015602 -14.882719 0 329.25
-4.9843707 -2.9653888 -2.1109483 329.25
-39.860558 -23.71454 1.0768416 329.25
-5.4224572 -3.226023 -2.1319792 329.25
-39.884678 -23.728889 2.1642661 329.25
-5.9314461 -3.5288396 -2.1536343 329.25
-39.904488 -23.740675 3.2468848 329.25
-6.5494356 -3.8965046 -2.1852529 329.25
-39.923096 -23.751747 4.3339663 329.25
-7.2979431 -4.3418198 -2.2230413 329.25
-39.907021 -23.742184 5.4302773 329.25
-8.2186899 -4.8896065 -2.2659364 329.25
-39.929222 -23.755392 6.5297236 329.25
-9.2990084 -5.5323286 -2.2999191 329.25
-39.94595 -23.765343 7.6365247 329.25
-10.697035 -6.3640666 -2.3451364 329.25
-11.618876 -6.8604403 -2.216836 329.44
-13.641768 -8.0548697 -2.2264912 329.44
-24.980448 -14.749866 -2.7064993 329.44
-24.991735 -14.756531 -2.0294948 329.44
-4.0418153 -2.3865156 -2.0898128 329.44
-25.003201 -14.763301 -1.354087 329.44
-4.3145089 -2.5475295 -2.0928466 329.44
-25.030518 -14.779429 -0.67487705 329.44
-4.6297951 -2.7336924 -2.0995016 329.44
-25.018318 -14.772227 0 329.44
-4.9990315 -2.9517105 -2.1130004 329.44
-39.852894 -23.531397 1.0745205 329.44
-5.4396515 -3.2118771 -2.1345401 329.44
-39.858204 -23.534534 2.1585829 329.44
-5.9480476 -3.5120628 -2.1554217 329.44
-39.886787 -23.551411 3.2390721 329.44
-6.567287 -3.877697 -2.1869068 329.44
-39.931335 -23.577715 4.3263488 329.44
-7.3139668 -4.3185787 -2.2235477 329.44
-39.918823 -23.570326 5.4212179 329.44
-8.2432384 -4.8672729 -2.2682421 329.44
-39.929329 -23.576529 6.5169196 329.44
-9.3139343 -5.4994721 -2.2990875 329.44
-39.941265 -23.583578 7.6206369 329.44
-10.716387 -6.3275599 -2.3447661 329.44
-11.642585 -6.8279328 -2.2174845 329.60999
-13.657064 -8.0093489 -2.2250996 329.60999
-17.123276 -10.04215 -2.3213878 329.60999
-24.979441 -14.649491 -2.701669 329.60999
-24.990662 -14.656072 -2.0258675 329.60999
-4.0441499 -2.3717401 -2.0873725 329.60999
-25.000364 -14.661761 -1.3515716 329.60999
-4.315681 -2.5309825 -2.0897632 329.60999
-25.025965 -14.676776 -0.67357725 329.60999
-4.6330647 -2.7171161 -2.0973191 329.60999
-25.022358 -14.674661 0 329.60999
-5.0061464 -2.9359143 -2.1123164 329.60999
-39.862171 -23.377645 1.0728958 329.60999
-5.4458885 -3.1938062 -2.1332595 329.60999
-39.850307 -23.370687 2.1543903 329.60999
-5.9567947 -3.4934335 -2.1548259 329.60999
-39.877323 -23.386532 3.2326546 329.60999
-6.5820804 -3.8601396 -2.1880093 329.60999
-39.934124 -23.419844 4.3191032 329.60999
-7.3317552 -4.2997952 -2.2250671 329.60999
-39.914902 -23.408569 5.4112287 329.60999
-8.2593222 -4.8437781 -2.2687032 329.60999
-39.935894 -23.420881 6.5066209 329.60999
-9.3335848 -5.4737926 -2.2999191 329.60999
-39.937862 -23.422035 7.6066947 329.60999
-10.73681 -6.29673 -2.3451364 329.60999
-11.665017 -6.7973814 -2.218133 329.76999
-13.681088 -7.9721766 -2.2253778 329.76999
-17.171848 -10.006295 -2.3241754 329.76999
-24.968636 -14.549601 -2.6960955 329.76999
-24.99012 -14.562119 -2.0225191 329.76999
-4.0523362 -2.3613572 -2.088186 329.76999
-24.992878 -14.563726 -1.3489629 329.76999
-4.3195429 -2.5170627 -2.0882215 329.76999
-25.030575 -14.585693 -0.67260242 329.76999
-4.645463 -2.7069814 -2.0995016 329.76999
-25.016582 -14.57754 0 329.76999
-5.019197 -2.9247618 -2.1143684 329.76999
-39.856468 -23.224966 1.0709925 329.76999
-5.4564233 -3.1795399 -2.1338999 329.76999
-39.865356 -23.230145 2.1516886 329.76999
-5.9632277 -3.4748628 -2.1536343 329.76999
-39.861458 -23.227873 3.2260973 329.76999
-6.5911732 -3.840776 -2.187458 329.76999
-39.918503 -23.261114 4.3103714 329.76999
-7.3454056 -4.2802787 -2.2255738 329.76999
-39.916611 -23.26001 5.4026337 329.76999
-8.2728167 -4.8206949 -2.2687032 329.76999
-39.917294 -23.260408 6.4929819 329.76999
-9.3522148 -5.4496765 -2.3007507 329.76999
-39.931496 -23.268684 7.5930762 329.76999
-10.754352 -6.2667227 -2.3451364 329.76999
-11.68855 -6.7647176 -2.2187815 329.94
-13.696112 -7.9265885 -2.2239861 329.94
-17.187708 -9.947341 -2.3223171 329.94
-24.978949 -14.456501 -2.6925657 329.94
-24.990047 -14.462924 -2.0190313 329.94
-4.0609059 -2.3502386 -2.0889995 329.94
-24.987564 -14.461487 -1.3463542 329.94
-4.326992 -2.5042353 -2.0882215 329.94
-25.020094 -14.480314 -0.67116332 329.94
-4.6518621 -2.6922531 -2.0987742 329.94
-25.021643 -14.481211 0 329.94
-5.0294795 -2.9107981 -2.1150525 329.94
-39.847328 -23.061537 1.0689034 329.94
-5.4641929 -3.1623874 -2.1332595 329.94
-39.856297 -23.066727 2.147496 329.94
-5.9834261 -3.4628923 -2.1572089 329.94
-39.857674 -23.067524 3.220238 329.94
-6.6042037 -3.8221657 -2.1880093 329.94
-39.921852 -23.104666 4.3033118 329.94
-7.3530493 -4.255558 -2.2240543 329.94
-39.909798 -23.097691 5.3924122 329.94
-8.2853985 -4.7951527 -2.2682421 329.94
-39.92271 -23.105164 6.4826832 329.94
-9.3666506 -5.4209242 -2.3003349 329.94
-39.92691 -23.107595 7.579134 329.94
-10.774599 -6.2357707 -2.3455067 329.94
-11.704611 -6.7250142 -2.2178087 330.12
-13.722664 -7.8845086 -2.2242644 330.12
-17.168924 -9.8645954 -2.3155804 330.12
-24.977623 -14.351171 -2.6875494 330.12
-24.992113 -14.359496 -2.0155435 330.12
-4.0651007 -2.3356488 -2.0873725 330.12
-25.006887 -14.367986 -1.3449568 330.12
-4.3332376 -2.4897099 -2.0874507 330.12
-25.025587 -14.378729 -0.67009562 330.12
-4.6602969 -2.6776254 -2.0987742 330.12
-25.018457 -14.374633 0 330.12
-5.038599 -2.8949831 -2.1150525 330.12
-39.853703 -22.898388 1.0671395 330.12
-5.4790297 -3.1480374 -2.1351802 330.12
-39.956284 -22.957325 2.1489866 330.12
-5.9909649 -3.4421754 -2.1560173 330.12
-39.89362 -22.921322 3.217308 330.12
-6.617846 -3.802357 -2.1885607 330.12
-39.919994 -22.936476 4.2953229 330.12
-7.3697371 -4.2343645 -2.2250671 330.12
-40.04245 -23.006834 5.4005427 330.12
-8.2970476 -4.7671609 -2.2673197 330.12
-39.922974 -22.938189 6.4709926 330.12
-9.3836346 -5.3914714 -2.3003349 330.12
-39.927437 -22.940754 7.565516 330.12
-10.799249 -6.2048283 -2.3466177 330.12
-11.729655 -6.6931906 -2.2187815 330.29001
-13.745996 -7.8437581 -2.2242644 330.29001
-16.958296 -9.6767645 -2.2832904 330.29001
-24.980312 -14.254297 -2.6832764 330.29001
-24.987822 -14.258582 -2.0117767 330.29001
-4.0720129 -2.3235772 -2.0873725 330.29001
-24.988676 -14.25907 -1.3416959 330.29001
-4.3438115 -2.4786713 -2.0889924 330.29001
-25.021252 -14.277658 -0.66884226 330.29001
-4.6649852 -2.6619396 -2.0973191 330.29001
-25.022781 -14.278532 0 330.29001
-5.0422697 -2.8772264 -2.1130004 330.29001
-39.84853 -22.738419 1.0651897 330.29001
-5.4850545 -3.1298888 -2.1338999 330.29001
-40.072807 -22.866396 2.1515954 330.29001
-5.9994936 -3.4234385 -2.1554217 330.29001
-39.883472 -22.758358 3.21103 330.29001
-6.6324382 -3.7846103 -2.1896632 330.29001
-39.91869 -22.778452 4.2878919 330.29001
-7.3772273 -4.2096028 -2.2235477 330.29001
-40.132965 -22.900723 5.4035625 330.29001
-8.3111553 -4.7425218 -2.2673197 330.29001
-39.949574 -22.796076 6.4643121 330.29001
-9.401289 -5.3645754 -2.3007507 330.29001
-39.926765 -22.783062 7.5525465 330.29001
-10.819318 -6.1737332 -2.346988 330.29001
-11.749462 -6.6583586 -2.2187815 330.45999
-13.765763 -7.8009853 -2.2237079 330.45999
-16.636099 -9.4275894 -2.2361333 330.45999
-24.979183 -14.155572 -2.6786318 330.45999
-24.98315 -14.15782 -2.0080099 330.45999
-4.0804787 -2.3123858 -2.088186 330.45999
-24.990896 -14.16221 -1.339553 330.45999
-4.3511467 -2.4657722 -2.0889924 330.45999
-25.014795 -14.175754 -0.66754246 330.45999
-4.669621 -2.6462498 -2.0958643 330.45999
-25.023277 -14.180559 0 330.45999
-5.0540543 -2.8641062 -2.1143684 330.45999
-39.844498 -22.579668 1.0632865 330.45999
-5.4976139 -3.115469 -2.1351802 330.45999
-40.237812 -22.802557 2.1568127 330.45999
-6.0112858 -3.406564 -2.1560173 330.45999
-39.860561 -22.588772 3.2037754 330.45999
-6.6419654 -3.763967 -2.1891119 330.45999
-39.927193 -22.62653 4.2815752 330.45999
-7.3964181 -4.1915112 -2.2255738 330.45999
-40.309616 -22.843246 5.4181976 330.45999
-8.321804 -4.7159224 -2.2663975 330.45999
-39.967064 -22.649124 6.4562402 330.45999
-9.4171648 -5.3366575 -2.3007507 330.45999
-39.91349 -22.618765 7.5373068 330.45999
-10.834168 -6.1396661 -2.3462474 330.45999
-11.760002 -6.6156082 -2.216836 330.64001
-13.78675 -7.7557588 -2.2231512 330.64001
-16.527128 -9.2973633 -2.2175491 330.64001
-24.974936 -14.04969 -2.67343 330.64001
-24.985773 -14.055787 -2.0046616 330.64001
-4.0845385 -2.2977636 -2.0865591 330.64001
-24.998699 -14.063059 -1.3375965 330.64001
-4.3556547 -2.4502807 -2.0874507 330.64001
-25.013899 -14.071609 -0.66633546 330.64001
-4.6860299 -2.6361337 -2.0995016 330.64001
-25.031097 -14.081285 0 330.64001
-5.0663033 -2.8500571 -2.1157367 330.64001
-39.852505 -22.41909 1.0616153 330.64001
-5.5073743 -3.0981822 -2.1351802 330.64001
-40.342335 -22.694645 2.1585829 330.64001
-6.023622 -3.3885982 -2.1566131 330.64001
-39.880901 -22.435066 3.1997294 330.64001
-6.6571088 -3.7449672 -2.1902144 330.64001
-39.92345 -22.459002 4.2735863 330.64001
-7.4146085 -4.1711001 -2.2270932 330.64001
-8.3433628 -4.693572 -2.2682421 330.64001
-39.949986 -22.47393 6.4420447 330.64001
-9.4355888 -5.3080058 -2.3011665 330.64001
-39.924149 -22.459394 7.5259585 330.64001
-10.858542 -6.1084905 -2.3473582 330.64001
-11.783025 -6.5826116 -2.2174845 330.81
-13.795869 -7.7070909 -2.2209244 330.81
-16.62401 -9.2870378 -2.2268412 330.81
-24.980003 -13.955132 -2.6695285 330.81
-24.987307 -13.95921 -2.0014527 330.81
-4.0929332 -2.2865255 -2.0873725 330.81
-25.003689 -13.968363 -1.33564 330.81
-4.3677392 -2.4400465 -2.0897632 330.81
-25.024118 -13.979776 -0.66549993 330.81
-4.6954575 -2.623127 -2.100229 330.81
-25.030863 -13.983543 0 330.81
-5.0763779 -2.8359292 -2.1164207 330.81
-39.859497 -22.267591 1.060037 330.81
-5.5181966 -3.082752 -2.1358206 330.81
-42.14489 -23.544331 2.2512839 330.81
-6.036983 -3.3725731 -2.1578047 330.81
-6.6665125 -3.724261 -2.1896632 330.81
-39.909943 -22.295773 4.2650404 330.81
-7.4252625 -4.1481385 -2.2265868 330.81
-8.3538542 -4.6668983 -2.2673197 330.81
-39.949062 -22.317627 6.4311891 330.81
-9.4461727 -5.2771239 -2.2999191 330.81
-39.921696 -22.302338 7.512989 330.81
-10.878334 -6.0772042 -2.3477285 330.81
-11.80423 -6.5485787 -2.2178087 330.98001
-13.816944 -7.665163 -2.2206459 330.98001
-16.696655 -9.2627277 -2.2328811 330.98001
-24.981249 -13.858734 -2.6652553 330.98001
-24.990232 -13.863718 -1.9983834 330.98001
-4.1012969 -2.2752578 -2.088186 330.98001
-24.999601 -13.868916 -1.3332176 330.98001
-4.3701186 -2.4243908 -2.0874507 330.98001
-25.023525 -13.882188 -0.6643858 330.98001
-4.6983323 -2.6064725 -2.0980465 330.98001
-25.01103 -13.875257 0 330.98001
-5.0814834 -2.8190312 -2.1150525 330.98001
-39.832726 -22.09782 1.0575767 330.98001
-5.530633 -3.0682039 -2.1371009 330.98001
-42.446915 -23.548082 2.263675 330.98001
-6.0486326 -3.3555725 -2.1584003 330.98001
-6.6808958 -3.7063301 -2.1907656 330.98001
-39.921936 -22.147312 4.2592812 330.98001
-7.4426131 -4.1289048 -2.2281063 330.98001
-8.376173 -4.6468115 -2.2696254 330.98001
-9.4634991 -5.2500224 -2.3003349 330.98001
-39.920387 -22.146452 7.5003433 330.98001
-10.894599 -6.0439472 -2.3473582 330.98001
-11.82015 -6.511622 -2.2171602 331.14999
-13.837892 -7.623178 -2.2203677 331.14999
-15.499165 -8.5383596 -2.0693409 331.14999
-24.987373 -13.765335 -2.6615398 331.14999
-24.989317 -13.766405 -1.9950352 331.14999
-4.1032286 -2.2604344 -2.0857456 331.14999
-25.002144 -13.773472 -1.3311681 331.14999
-4.3756762 -2.4105232 -2.0866799 331.14999
-25.022573 -13.784726 -0.66327167 331.14999
-4.7060452 -2.5925207 -2.0980465 331.14999
-25.008295 -13.77686 0 331.14999
-5.0914712 -2.8048487 -2.1157367 331.14999
-39.83857 -21.946733 1.0559983 331.14999
-5.5363927 -3.0499523 -2.1358206 331.14999
-42.740578 -23.545425 2.2756004 331.14999
-6.0552177 -3.3357687 -2.1572089 331.14999
-6.6935472 -3.6874189 -2.1913171 331.14999
-39.908985 -21.985525 4.2509208 331.14999
-7.4548311 -4.1068039 -2.2281063 331.14999
-8.3814011 -4.6172433 -2.2673197 331.14999
-9.4790344 -5.2219205 -2.3003349 331.14999
-39.916775 -21.989817 7.4873738 331.14999
-10.905598 -6.0078025 -2.3458769 331.14999
-11.842351 -6.4834976 -2.218133 331.29999
-13.856064 -7.5859737 -2.2200892 331.29999
-15.504041 -8.4882145 -2.0670178 331.29999
-24.972672 -13.672138 -2.656152 331.29999
-24.986771 -13.679857 -1.9919659 331.29999
-4.1091323 -2.2496843 -2.0857456 331.29999
-24.992556 -13.683024 -1.3287457 331.29999
-4.3835907 -2.3999457 -2.0874507 331.29999
-25.032269 -13.704767 -0.66257536 331.29999
-4.7209868 -2.5846648 -2.1016841 331.29999
-25.012699 -13.694054 0 331.29999
-5.0955 -2.7897046 -2.1143684 331.29999
-39.829247 -21.805876 1.0542343 331.29999
-5.5443587 -3.0354476 -2.1358206 331.29999
-43.056171 -23.572565 2.2891097 331.29999
-6.06393 -3.3199046 -2.1572089 331.29999
-40.213684 -22.01635 3.205868 331.29999
-6.7065506 -3.6717291 -2.1924195 331.29999
-39.910511 -21.850367 4.2449756 331.29999
-7.4655571 -4.0872731 -2.2281063 331.29999
-42.457512 -23.24481 5.6604881 331.29999
-8.3985815 -4.5980887 -2.2687032 331.29999
-9.4943895 -5.1980262 -2.3007507 331.29999
-39.906696 -21.848278 7.4747286 331.29999
-10.933357 -5.9858379 -2.3484693 331.29999
-11.856849 -6.4404235 -2.216836 331.48999
-13.875923 -7.5371475 -2.2192543 331.48999
-15.472754 -8.4045172 -2.0591195 331.48999
-24.960127 -13.557884 -2.6500211 331.48999
-25.007452 -13.583591 -1.9900126 331.48999
-4.122992 -2.2395339 -2.0889995 331.48999
-25.000927 -13.580046 -1.3267891 331.48999
-4.3931465 -2.386277 -2.0882215 331.48999
-25.017839 -13.589233 -0.66099703 331.48999
-4.7229834 -2.5654383 -2.0987742 331.48999
-25.021067 -13.590985 0 331.48999
-5.1063743 -2.773689 -2.1150525 331.48999
-39.832813 -21.636456 1.0524238 331.48999
-5.551064 -3.0152364 -2.1345401 331.48999
-43.360569 -23.552668 2.3011281 331.48999
-6.0732284 -3.2988665 -2.1566131 331.48999
-40.232124 -21.853354 3.2015431 331.48999
-6.7136211 -3.6467164 -2.1907656 331.48999
-39.905754 -21.676077 4.2368011 331.48999
-7.4756699 -4.060647 -2.2270932 331.48999
-42.693211 -23.19017 5.6816278 331.48999
-8.4120722 -4.569284 -2.2682421 331.48999
-9.5218887 -5.1721158 -2.3032458 331.48999
-39.914761 -21.680969 7.4627314 331.48999
-10.954873 -5.9504871 -2.3488395 331.48999
-11.876524 -6.4082251 -2.2171602 331.64999
-13.891687 -7.4955478 -2.2184193 331.64999
-14.637791 -7.8981233 -1.9450595 331.64999
-24.994368 -13.48623 -1.9859668 331.64999
-4.1276221 -2.227144 -2.088186 331.64999
-25.000071 -13.489306 -1.3247395 331.64999
-4.4014173 -2.374876 -2.0889924 331.64999
-25.016977 -13.498429 -0.65997571 331.64999
-4.72685 -2.5504699 -2.0973191 331.64999
-25.027241 -13.503966 0 331.64999
-5.1141 -2.7594185 -2.1150525 331.64999
-39.833252 -21.492857 1.0508455 331.64999
-5.5678 -3.0042219 -2.1377413 331.64999
-43.670563 -23.563358 2.3140783 331.64999
-6.0840969 -3.2828004 -2.1572089 331.64999
-40.259632 -21.722919 3.1988924 331.64999
-6.7271624 -3.6297798 -2.1918683 331.64999
-39.901287 -21.529566 4.2299271 331.64999
-7.4886827 -4.0406737 -2.2275999 331.64999
-8.4247999 -4.5457754 -2.2682421 331.64999
-9.5362949 -5.1455054 -2.3032458 331.64999
-39.902203 -21.530062 7.4491134 331.64999
-10.976637 -5.9226718 -2.3499503 331.64999
-11.88031 -6.3594918 -2.2139177 331.84
-13.923451 -7.4531789 -2.2195327 331.84
-14.690171 -7.8636012 -1.9485441 331.84
-24.994978 -13.379732 -1.982479 331.84
-4.1333742 -2.2125819 -2.0873725 331.84
-24.993586 -13.378986 -1.3220377 331.84
-4.4060144 -2.3585253 -2.0874507 331.84
-25.010483 -13.388031 -0.65862948 331.84
-4.7402091 -2.5374188 -2.0995016 331.84
-25.033091 -13.400133 0 331.84
-5.1232224 -2.7424445 -2.1150525 331.84
-39.837318 -21.324789 1.0490814 331.84
-5.5760612 -2.9848478 -2.1371009 331.84
-43.958065 -23.530611 2.3251653 331.84
-6.096633 -3.2635078 -2.1578047 331.84
-40.224152 -21.531858 3.190382 331.84
-6.7391624 -3.6074519 -2.1918683 331.84
-39.907505 -21.362358 4.223053 331.84
-7.5054526 -4.0176444 -2.2286127 331.84
-39.995163 -21.409283 5.3050671 331.84
-8.4449749 -4.5205679 -2.2696254 331.84
-40.055679 -21.441675 6.385262 331.84
-9.5464067 -5.1101608 -2.3015823 331.84
-39.902042 -21.359436 7.4358196 331.84
-10.991018 -5.8834567 -2.3488395 331.84
-11.906097 -6.327919 -2.2152147 332.01001
-13.940258 -7.4090457 -2.2186975 332.01001
-19.091198 -10.146696 -2.0170555 332.01001
-25.009903 -13.292402 -1.9805259 332.01001
-4.136694 -2.1985931 -2.0857456 332.01001
-25.012003 -13.293519 -1.3209196 332.01001
-4.412993 -2.3454421 -2.0874507 332.01001
-25.028908 -13.302504 -0.65807247 332.01001
-4.7444267 -2.5215945 -2.0980465 332.01001
-25.021524 -13.298579 0 332.01001
-5.1296773 -2.7263494 -2.1143684 332.01001
-39.836853 -21.172714 1.0474104 332.01001
-5.586566 -2.9691794 -2.1377413 332.01001
-39.809624 -21.158241 2.1024032 332.01001
-6.1062889 -3.2454045 -2.1578047 332.01001
-39.84742 -21.178329 3.1555037 332.01001
-6.751534 -3.5883429 -2.1924195 332.01001
-39.90741 -21.210213 4.2163649 332.01001
-7.5207572 -3.9971738 -2.2296257 332.01001
-39.893623 -21.202887 5.2832308 332.01001
-8.4549131 -4.4936647 -2.2687032 332.01001
-39.90226 -21.207476 6.3507471 332.01001
-9.5615263 -5.0818133 -2.3015823 332.01001
-39.91296 -21.213163 7.4260921 332.01001
-11.011898 -5.8526649 -2.34958 332.01001
-11.920232 -6.2928038 -2.2145662 332.17001
-13.959142 -7.369164 -2.2184193 332.17001
-14.47347 -7.6406822 -1.9139313 332.17001
-19.066628 -10.065454 -2.011482 332.17001
-4.147665 -2.1895916 -2.088186 332.17001
-25.010159 -13.203101 -1.3188699 332.17001
-4.4195256 -2.3331096 -2.0874507 332.17001
-25.048277 -13.223224 -0.65760821 332.17001
-4.7563925 -2.5109448 -2.100229 332.17001
-25.009041 -13.202511 0 332.17001
-5.1422567 -2.7146463 -2.1164207 332.17001
-39.841011 -21.03245 1.0459713 332.17001
-5.5931602 -2.9526825 -2.1371009 332.17001
-39.815552 -21.019009 2.0996082 332.17001
-6.1170163 -3.2292311 -2.1584003 332.17001
-39.827007 -21.025057 3.1492257 332.17001
-6.7649283 -3.57127 -2.193522 332.17001
-39.908371 -21.068008 4.2102342 332.17001
-7.5318899 -3.9761565 -2.2296257 332.17001
-39.889439 -21.058014 5.274868 332.17001
-8.4691505 -4.4709449 -2.2691643 332.17001
-39.898273 -21.062679 6.3407264 332.17001
-9.5808706 -5.0578327 -2.30283 332.17001
-39.890015 -21.058319 7.4108529 332.17001
-11.022985 -5.8191381 -2.3484693 332.17001
-11.937102 -6.2564917 -2.214242 332.34
-13.972174 -7.3231168 -2.2170274 332.34
-16.508883 -8.6526604 -2.1796839 332.34
-19.05937 -9.9894247 -2.0075805 332.34
-19.134384 -10.028742 -1.5106462 332.34
-4.1525249 -2.1764276 -2.0873725 332.34
-25.010294 -13.108433 -1.3168203 332.34
-4.4264283 -2.3199863 -2.0874507 332.34
-25.046667 -13.127497 -0.65654051 332.34
-4.7621717 -2.4959564 -2.0995016 332.34
-25.010902 -13.108752 0 332.34
-5.1552825 -2.7019944 -2.1184728 332.34
-39.835945 -20.878874 1.0442072 332.34
-5.6018963 -2.9360743 -2.1371009 332.34
-39.815807 -20.86832 2.0963473 332.34
-6.1231885 -3.2092948 -2.1572089 332.34
-39.834435 -20.878084 3.1449008 332.34
-6.7754946 -3.5511825 -2.193522 332.34
-39.898388 -20.911604 4.2026167 332.34
-7.5419407 -3.9528933 -2.2291193 332.34
-39.877846 -20.900837 5.265111 332.34
-8.4875498 -4.4485073 -2.2705476 332.34
-39.886917 -20.90559 6.3290358 332.34
-9.5958347 -5.0293837 -2.30283 332.34
-39.899883 -20.912386 7.4011259 332.34
-11.026275 -5.7791076 -2.3455067 332.34
-11.947944 -6.214406 -2.2126207 332.51999
-14.000382 -7.2819276 -2.2178626 332.51999
-16.433769 -8.5475893 -2.1662104 332.51999
-19.065924 -9.9166346 -2.0049796 332.51999
-19.128624 -9.9492464 -1.5077164 332.51999
-4.1609626 -2.1642144 -2.088186 332.51999
-25.008814 -13.007671 -1.3145843 332.51999
-4.4353323 -2.3069205 -2.0882215 332.51999
-25.036343 -13.02199 -0.65519428 332.51999
-4.7699895 -2.4809835 -2.0995016 332.51999
-25.01825 -13.012579 0 332.51999
-5.1620779 -2.6849179 -2.1177888 332.51999
-39.841026 -20.722254 1.0426289 332.51999
-5.6127734 -2.9193354 -2.1377413 332.51999
-39.810272 -20.706259 2.0926206 332.51999
-6.1349344 -3.1909235 -2.1578047 332.51999
-39.821949 -20.71233 3.1387622 332.51999
-6.7866178 -3.5298791 -2.193522 332.51999
-39.905586 -20.755833 4.196486 332.51999
-7.5577545 -3.9309657 -2.2301323 332.51999
-39.895729 -20.750704 5.2588391 332.51999
-8.5032101 -4.422719 -2.2710087 332.51999
-39.901443 -20.753677 6.3209639 332.51999
-9.6167946 -5.0019207 -2.3040774 332.51999
-39.912857 -20.759613 7.3913984 332.51999
-11.051351 -5.7480669 -2.346988 332.51999
-11.96633 -6.1789289 -2.2126207 332.69
-14.014888 -7.236721 -2.2167492 332.69
-16.444937 -8.4914999 -2.1643522 332.69
-19.031565 -9.8271303 -1.9982913 332.69
-19.133242 -9.879632 -1.5057633 332.69
-4.1657424 -2.1510208 -2.0873725 332.69
-25.013571 -12.915996 -1.3128141 332.69
-4.4372382 -2.2912102 -2.0859089 332.69
-25.030455 -12.924714 -0.65403378 332.69
-4.7839508 -2.4702387 -2.1024115 332.69
-25.024761 -12.921774 0 332.69
-5.1666818 -2.6678655 -2.1164207 332.69
-39.825943 -20.564505 1.0406327 332.69
-5.6214108 -2.902669 -2.1377413 332.69
-39.814732 -20.558716 2.0896394 332.69
-6.1460714 -3.1735828 -2.1584003 332.69
-39.8265 -20.564793 3.1342978 332.69
-6.7953529 -3.5088453 -2.1929708 332.69
-39.894451 -20.59988 4.188869 332.69
-7.571104 -3.9094117 -2.2306387 332.69
-39.886517 -20.595783 5.249547 332.69
-8.5128365 -4.3956842 -2.2700865 332.69
-39.888931 -20.597031 6.3092732 332.69
