# .PCD v0.7 - Point Cloud Data file format
VERSION 0.7
FIELDS x y z intensity
SIZE 4 4 4 4
TYPE F F F F
COUNT 1 1 1 1
WIDTH 1176
HEIGHT 1
VIEWPOINT 0 0 0 1 0 0 0
POINTS 1176
DATA ascii
-3.7238765 -6.4034009 -2.1240613 300.17999
-25.259481 -43.435001 4.6876988 300.17999
-4.0832253 -7.0213203 -2.1262991 300.17999
-25.25139 -43.421089 5.8739729 300.17999
-4.5375791 -7.8026052 -2.1386678 300.17999
-25.283577 -43.476437 7.0683236 300.17999
-5.0923829 -8.7566195 -2.1531334 300.17999
-5.8443294 -10.049631 -2.1903493 300.17999
-6.9325571 -11.83518 -2.2534752 300.35999
-8.3675709 -14.285019 -2.3266959 300.35999
-10.612503 -18.11754 -2.4554257 300.35999
-12.683815 -21.65366 -2.3412483 300.35999
-14.736766 -25.158434 -2.0388422 300.35999
-2.390862 -4.0816517 -2.1060824 300.35999
-25.123978 -42.891361 -2.3180845 300.35999
-2.5511088 -4.3552232 -2.1082635 300.35999
-25.158655 -42.950562 -1.1556654 300.35999
-2.7354054 -4.6698523 -2.1133237 300.35999
-25.184641 -42.994923 0 300.35999
-2.9342427 -5.0093045 -2.1130004 300.35999
-25.203121 -43.026474 1.157708 300.35999
-3.1641395 -5.401782 -2.1153331 300.35999
-25.217886 -43.051682 2.3267491 300.35999
-3.4285555 -5.8531899 -2.116698 300.35999
-25.223124 -43.060623 3.4896374 300.35999
-3.7430034 -6.3900113 -2.1235101 300.35999
-25.258928 -43.121746 4.6624322 300.35999
-4.1072192 -7.0117965 -2.1273122 300.35999
-25.263178 -43.129002 5.8451676 300.35999
-4.558135 -7.7815948 -2.1368232 300.35999
-25.291906 -43.178047 7.0326953 300.35999
-5.1258001 -8.7507067 -2.1556284 300.35999
-5.8808393 -10.039701 -2.1922009 300.35999
-6.9725957 -11.827676 -2.2557449 300.51999
-8.423522 -14.288895 -2.3311493 300.51999
-10.669107 -18.098101 -2.4568195 300.51999
-12.734121 -21.601002 -2.3393905 300.51999
-14.835334 -25.165308 -2.0427487 300.51999
-2.4041066 -4.0781069 -2.1077092 300.51999
-25.115818 -42.604183 -2.3063455 300.51999
-2.5651352 -4.3512616 -2.1098051 300.51999
-25.146494 -42.656219 -1.1496307 300.51999
-2.7446511 -4.655776 -2.1104138 300.51999
-25.173584 -42.702171 0 300.51999
-2.9453566 -4.9962344 -2.1109483 300.51999
-25.193203 -42.735451 1.1517661 300.51999
-3.1801741 -5.3945575 -2.1159732 300.51999
-25.200027 -42.747032 2.3140783 300.51999
-3.4419787 -5.8386588 -2.1149106 300.51999
-25.217636 -42.776897 3.4723377 300.51999
-3.7598567 -6.3778782 -2.1229589 300.51999
-25.23868 -42.812595 4.6366081 300.51999
-4.1297317 -7.0053 -2.1288316 300.51999
-25.250357 -42.832401 5.8145041 300.51999
-4.5788593 -7.767159 -2.1363621 300.51999
-25.278612 -42.880333 6.9956751 300.51999
-5.1502171 -8.7363586 -2.1556284 300.51999
-5.9098506 -10.024932 -2.1925712 300.51999
-7.0106802 -11.812027 -2.2567177 300.69
-8.4638596 -14.260432 -2.3305926 300.69
-10.734925 -18.086864 -2.4596071 300.69
-12.79714 -21.561411 -2.3392048 300.69
-14.920118 -25.138336 -2.0441437 300.69
-2.4161959 -4.0709562 -2.1077092 300.69
-25.113638 -42.313007 -2.2946064 300.69
-2.5789764 -4.3452187 -2.1105762 300.69
-25.136198 -42.351017 -1.1434102 300.69
-2.7603548 -4.650816 -2.1118686 300.69
-25.160326 -42.39167 0 300.69
-2.9640045 -4.993938 -2.1136844 300.69
-25.187223 -42.436989 1.1457312 300.69
-3.2039027 -5.3981328 -2.1210952 300.69
-25.196232 -42.452168 2.3021529 300.69
-3.4592872 -5.8284206 -2.1149106 300.69
-25.216141 -42.48571 3.4547591 300.69
-3.7787635 -6.366694 -2.1229589 300.69
-25.236517 -42.520042 4.6130133 300.69
-4.1465483 -6.986361 -2.1268058 300.69
-25.23843 -42.523266 5.7826786 300.69
-4.6048646 -7.7585597 -2.1377454 300.69
-25.269264 -42.575218 6.9580984 300.69
-5.179111 -8.7260857 -2.1568758 300.69
-5.9455881 -10.017494 -2.194793 300.69
-7.0548425 -11.801802 -2.2589872 300.87
-8.5228443 -14.257572 -2.3344896 300.87
-10.805964 -18.076921 -2.4628594 300.87
-12.858684 -21.510845 -2.3380899 300.87
-15.049179 -25.175251 -2.0509799 300.87
-2.4308481 -4.0664816 -2.1093361 300.87
-25.110109 -42.005833 -2.2822154 300.87
-2.5878801 -4.329175 -2.1067219 300.87
-25.146015 -42.065899 -1.1378396 300.87
-2.7692165 -4.6325264 -2.1075039 300.87
-25.161001 -42.090965 0 300.87
-2.9777503 -4.9813752 -2.1123164 300.87
-25.193207 -42.144844 1.139975 300.87
-3.212096 -5.373404 -2.1153331 300.87
-25.202366 -42.160164 2.2906003 300.87
-3.4795396 -5.8208017 -2.1161022 300.87
-25.21129 -42.175095 3.4359248 300.87
-3.7967737 -6.351491 -2.1218565 300.87
-25.245319 -42.232021 4.5903478 300.87
-4.1664906 -6.9699783 -2.1257927 300.87
-25.23328 -42.21188 5.7510858 300.87
-4.6312132 -7.747396 -2.1386678 300.87
-25.277901 -42.286526 6.923862 300.87
-5.2075028 -8.7114515 -2.1572917 300.87
-5.9800549 -10.003827 -2.1959038 300.87
-7.0979691 -11.794346 -2.2615812 301.04001
-8.567153 -14.235615 -2.3350463 301.04001
-10.867745 -18.058397 -2.4647179 301.04001
-12.918344 -21.465775 -2.3373468 301.04001
-15.141298 -25.15955 -2.0533516 301.04001
-2.4419608 -4.0576859 -2.1085227 301.04001
-25.107924 -41.7206 -2.2707558 301.04001
-2.6007135 -4.3214774 -2.1067219 301.04001
-25.144934 -41.782097 -1.1321762 301.04001
-2.7867918 -4.6306748 -2.1104138 301.04001
-25.151711 -41.793358 0 301.04001
-2.9963934 -4.9789591 -2.1150525 301.04001
-25.177927 -41.836918 1.1336616 301.04001
-3.2260709 -5.3606029 -2.1140525 301.04001
-25.193426 -41.862675 2.2784886 301.04001
-3.4958105 -5.808816 -2.1155064 301.04001
-25.203606 -41.879589 3.4179277 301.04001
-3.8195674 -6.346787 -2.1240613 301.04001
-25.233948 -41.930004 4.5656385 301.04001
-4.1941361 -6.9691896 -2.1293383 301.04001
-25.234474 -41.930882 5.7229772 301.04001
-4.6561866 -7.7369556 -2.13959 301.04001
-25.268454 -41.987343 6.8871202 301.04001
-5.2383709 -8.7043428 -2.1593709 301.04001
-25.2647 -41.981106 8.0499325 301.04001
-6.0097103 -9.9860392 -2.1959038 301.04001
-7.1380558 -11.777052 -2.2625539 301.22
-8.6118326 -14.208631 -2.3350463 301.22
-10.930601 -18.034359 -2.4661117 301.22
-12.979523 -21.414865 -2.3362322 301.22
-15.248186 -25.157925 -2.0571184 301.22
-2.4518552 -4.0453067 -2.1060824 301.22
-25.108393 -41.426243 -2.2590168 301.22
-2.6142771 -4.3132858 -2.1067219 301.22
-25.140308 -41.478901 -1.1260949 301.22
-2.8022914 -4.6234903 -2.1111412 301.22
-25.167816 -41.524284 0 301.22
-3.0081239 -4.9630923 -2.1123164 301.22
-25.187981 -41.557556 1.1282303 301.22
-3.2448599 -5.353682 -2.1153331 301.22
-25.191235 -41.562923 2.26647 301.22
-3.5140421 -5.7978048 -2.1155064 301.22
-25.206818 -41.588634 3.4006281 301.22
-3.836498 -6.3298235 -2.1224077 301.22
-25.227238 -41.622326 4.5407434 301.22
-4.2150073 -6.9543242 -2.1288316 301.22
-25.240463 -41.644146 5.6946363 301.22
-4.679461 -7.7206254 -2.1391289 301.22
-25.274996 -41.701118 6.8531618 301.22
-5.2667046 -8.6895161 -2.1597867 301.22
-25.275755 -41.702374 8.011672 301.22
-6.0471654 -9.9771948 -2.1981256 301.22
-7.176054 -11.765497 -2.2641752 301.38
-8.6576653 -14.194672 -2.3367164 301.38
-10.99747 -18.030899 -2.4698284 301.38
-13.0372 -21.375137 -2.3358605 301.38
-16.228445 -26.607342 -2.1793318 301.38
-2.4650452 -4.041564 -2.1077092 301.38
-25.099142 -41.151291 -2.2478366 301.38
-2.6234288 -4.3012419 -2.1044092 301.38
-25.129021 -41.200279 -1.1204314 301.38
-2.8132515 -4.6124659 -2.1096864 301.38
-25.150373 -41.235287 0 301.38
-3.0229504 -4.9562774 -2.1130004 301.38
-25.176914 -41.278801 1.1225668 301.38
-3.2568378 -5.3397474 -2.1134124 301.38
-25.184446 -41.291153 2.2554765 301.38
-3.5292249 -5.7863393 -2.1149106 301.38
-25.196114 -41.31028 3.3836076 301.38
-3.8571625 -6.3240094 -2.1240613 301.38
-25.230347 -41.366405 4.520493 301.38
-4.2323956 -6.9392233 -2.1278186 301.38
-25.220119 -41.34964 5.6639729 301.38
-4.7010031 -7.7075276 -2.1391289 301.38
-25.262438 -41.419022 6.8183684 301.38
-5.2950244 -8.6814556 -2.1614499 301.38
-25.260572 -41.415966 7.9701686 301.38
-6.0801201 -9.9686594 -2.1999772 301.38
-7.2202115 -11.754666 -2.2664449 301.56
-8.7073994 -14.17584 -2.3381081 301.56
-11.089411 -18.05381 -2.4777267 301.56
-13.106372 -21.337467 -2.3362322 301.56
-16.267052 -26.483126 -2.1733327 301.56
-2.4767735 -4.0322428 -2.1068959 301.56
-25.105959 -40.873062 -2.2369361 301.56
-2.6407924 -4.2992692 -2.1074927 301.56
-25.134844 -40.92009 -1.1149538 301.56
-2.8306534 -4.608367 -2.1118686 301.56
-25.153131 -40.949863 0 301.56
-3.0375223 -4.9451547 -2.1123164 301.56
-25.179844 -40.993351 1.1169498 301.56
-3.2745886 -5.3311038 -2.1140525 301.56
-25.184381 -41.00074 2.2439237 301.56
-3.5483851 -5.7768502 -2.1155064 301.56
-25.203594 -41.032017 3.3672845 301.56
-3.8729861 -6.3053079 -2.1218565 301.56
-25.223642 -41.064655 4.4961553 301.56
-4.2531624 -6.9242439 -2.1273122 301.56
-25.230333 -41.07555 5.6372581 301.56
-4.724175 -7.6910629 -2.1386678 301.56
-25.264933 -41.131878 6.784132 301.56
-5.3243198 -8.6681118 -2.1622815 301.56
-25.257313 -41.119469 7.9283419 301.56
-6.1124363 -9.9511833 -2.2003474 301.56
-7.2592344 -11.74453 -2.2683902 301.72
-8.75424 -14.163262 -2.3400564 301.72
-11.166939 -18.066706 -2.4837666 301.72
-13.156484 -21.28554 -2.3345602 301.72
-17.633282 -28.528437 -2.3452127 301.72
-2.4870634 -4.0237565 -2.1060824 301.72
-25.08765 -40.588669 -2.2251971 301.72
-2.653758 -4.2934475 -2.1082635 301.72
-25.123917 -40.647346 -1.1094296 301.72
-2.8425319 -4.5988598 -2.1111412 301.72
-25.144358 -40.680416 0 301.72
-3.0493438 -4.9334555 -2.1109483 301.72
-25.169121 -40.720482 1.1114256 301.72
-3.2914555 -5.3251619 -2.1153331 301.72
-25.172731 -40.726322 2.2327437 301.72
-3.5634995 -5.765295 -2.1149106 301.72
-25.189054 -40.752728 3.3501244 301.72
-3.8905785 -6.2944679 -2.1218565 301.72
-25.211533 -40.789097 4.4736757 301.72
-4.273499 -6.9139857 -2.1278186 301.72
-25.21961 -40.802162 5.6093817 301.72
-4.7446108 -7.6761851 -2.1382065 301.72
-25.250574 -40.852261 6.7496171 301.72
-5.3505621 -8.656538 -2.1631131 301.72
-25.236111 -40.828861 7.8858662 301.72
-6.1474347 -9.9457779 -2.2029395 301.72
-7.296134 -11.726292 -2.2690387 301.89001
-8.8056421 -14.15236 -2.3425617 301.89001
-11.208951 -18.01494 -2.4812112 301.89001
-13.220634 -21.2481 -2.3347459 301.89001
-17.677797 -28.411621 -2.3399112 301.89001
-2.5009217 -4.0194621 -2.1077092 301.89001
-25.08976 -40.32407 -2.2147624 301.89001
-2.6645355 -4.2824211 -2.1067219 301.89001
-25.111317 -40.358715 -1.1035805 301.89001
-2.8512433 -4.5824966 -2.1075039 301.89001
-25.131819 -40.391666 0 301.89001
-3.064961 -4.925982 -2.1116323 301.89001
-25.155682 -40.430019 1.1055301 301.89001
-3.3072412 -5.3153725 -2.1153331 301.89001
-25.17314 -40.458076 2.2221227 301.89001
-3.5815983 -5.7563176 -2.1155064 301.89001
-25.188648 -40.483002 3.3340805 301.89001
-3.9102533 -6.2845292 -2.1224077 301.89001
-25.208307 -40.514599 4.4517531 301.89001
-4.2919502 -6.8979897 -2.1268058 301.89001
-25.211481 -40.519699 5.5808086 301.89001
-4.7704501 -7.6670308 -2.13959 301.89001
-25.244026 -40.572006 6.7156587 301.89001
-5.3824239 -8.6505899 -2.1656082 301.89001
-25.244541 -40.572834 7.8508482 301.89001
-6.1831474 -9.9375076 -2.2051616 301.89001
-7.34132 -11.716691 -2.2716327 302.07001
-8.8542652 -14.13134 -2.3436751 302.07001
-11.247561 -17.951021 -2.477262 302.07001
-13.27569 -21.187901 -2.3327022 302.07001
-17.818874 -28.438787 -2.3467474 302.07001
-2.5125668 -4.0100374 -2.1068959 302.07001
-25.085844 -40.036816 -2.2033029 302.07001
-2.6828752 -4.2818484 -2.1105762 302.07001
-25.109528 -40.074612 -1.0979635 302.07001
-2.8685932 -4.5782528 -2.1096864 302.07001
-25.139656 -40.122696 0 302.07001
-3.0814192 -4.9179215 -2.1123164 302.07001
-25.16367 -40.161022 1.1003309 302.07001
-3.3229175 -5.3033509 -2.1146929 302.07001
-25.168583 -40.168869 2.2105699 302.07001
-3.5976372 -5.7418013 -2.114315 302.07001
-25.181171 -40.188957 3.3163624 302.07001
-3.9320188 -6.2754722 -2.1235101 302.07001
-25.203299 -40.224274 4.4285302 302.07001
-4.3146272 -6.8861117 -2.1273122 302.07001
-25.201538 -40.221462 5.5506096 302.07001
-4.7955465 -7.6536555 -2.1400511 302.07001
-25.243069 -40.287746 6.6817007 302.07001
-5.4116511 -8.6369534 -2.1664398 302.07001
-25.245089 -40.290966 7.811615 302.07001
-6.2174668 -9.9230299 -2.2062724 302.07001
-7.3802633 -11.701534 -2.2729297 302.23999
-8.9109468 -14.128459 -2.3475718 302.23999
-11.282758 -17.889006 -2.4733129 302.23999
-13.35337 -21.171997 -2.3353033 302.23999
-17.804193 -28.228853 -2.3337727 302.23999
-2.5205548 -3.9963832 -2.103642 302.23999
-25.080896 -39.766193 -2.1924956 302.23999
-2.6926143 -4.2691865 -2.1082635 302.23999
-25.115255 -39.820667 -1.0930427 302.23999
-2.8771951 -4.5618424 -2.1060488 302.23999
-25.134827 -39.8517 0 302.23999
-3.0939922 -4.9055777 -2.1109483 302.23999
-25.151522 -39.87817 1.0946211 302.23999
-3.3366165 -5.2902632 -2.1134124 302.23999
-25.165092 -39.899685 2.1998558 302.23999
-3.617713 -5.7359462 -2.1161022 302.23999
-25.18429 -39.930126 3.3011553 302.23999
-3.94857 -6.2605257 -2.1224077 302.23999
-25.199306 -39.953934 4.4069791 302.23999
-4.3350396 -6.8732796 -2.1273122 302.23999
-25.206318 -39.96505 5.5255208 302.23999
-4.8161578 -7.6361008 -2.1391289 302.23999
-25.240992 -40.020023 6.6496906 302.23999
-5.4382973 -8.6225138 -2.1668556 302.23999
-25.242395 -40.022251 7.774003 302.23999
-6.246882 -9.9045382 -2.2062724 302.23999
-7.4222784 -11.686621 -2.2745509 302.42001
-8.9584742 -14.105411 -2.3484068 302.42001
-11.326122 -17.833349 -2.4705253 302.42001
-13.409142 -21.113132 -2.3334453 302.42001
-21.489958 -33.836643 -2.8029547 302.42001
-2.5350566 -3.9915295 -2.105269 302.42001
-25.075029 -39.481453 -2.1811292 302.42001
-2.7020555 -4.2544751 -2.1051803 302.42001
-25.121244 -39.554222 -1.0878899 302.42001
-2.8995028 -4.565362 -2.1118686 302.42001
-25.131231 -39.569946 0 302.42001
-3.1114035 -4.8990064 -2.1123164 302.42001
-25.149115 -39.598106 1.0890969 302.42001
-3.3552516 -5.2829533 -2.1146929 302.42001
-25.172497 -39.634922 2.1896074 302.42001
-3.6326444 -5.7197175 -2.114315 302.42001
-25.183393 -39.652077 3.2846928 302.42001
-3.9682186 -6.2480898 -2.1224077 302.42001
-25.208332 -39.691345 4.3867288 302.42001
-4.3555741 -6.8579936 -2.1268058 302.42001
-25.202885 -39.682766 5.4974127 302.42001
-4.8463836 -7.6307898 -2.1418955 302.42001
-25.234928 -39.733223 6.6151757 302.42001
-5.4685054 -8.6103401 -2.1681032 302.42001
-25.235746 -39.734509 7.7334728 302.42001
-6.2800746 -9.8881826 -2.2070129 302.42001
-7.4622359 -11.672861 -2.2761719 302.59
-9.0088205 -14.092117 -2.3506336 302.59
-11.371495 -17.787951 -2.4688993 302.59
-13.476017 -21.079966 -2.3341885 302.59
-21.474199 -33.591183 -2.7878873 302.59
-2.5468884 -3.9839902 -2.105269 302.59
-25.068314 -39.213306 -2.1704149 302.59
-2.7136729 -4.244884 -2.1044092 302.59
-25.110336 -39.279041 -1.0823658 302.59
-2.9110289 -4.5535998 -2.1104138 302.59
-25.131107 -39.311531 0 302.59
-3.1239007 -4.8865862 -2.1109483 302.59
-25.158798 -39.354847 1.0844548 302.59
-3.3709116 -5.272975 -2.1146929 302.59
-25.167313 -39.368168 2.1789863 302.59
-3.6506276 -5.7105227 -2.1149106 302.59
-25.176275 -39.382187 3.2685094 302.59
-3.9857039 -6.2346687 -2.1218565 302.59
-25.196203 -39.413361 4.3642488 302.59
-4.3748608 -6.84341 -2.1262991 302.59
-25.20603 -39.42873 5.4725561 302.59
-4.872148 -7.6212955 -2.1432788 302.59
-25.236431 -39.476284 6.584836 302.59
-5.4971895 -8.5990219 -2.1693506 302.59
-25.238728 -39.479877 7.6984549 302.59
-6.3136201 -9.8761301 -2.2084942 302.59
-7.5043125 -11.662286 -2.2784417 302.76001
-9.057023 -14.075319 -2.3523037 302.76001
-11.3952 -17.709028 -2.4626272 302.76001
-13.528805 -21.024817 -2.3325164 302.76001
-23.00317 -35.748718 -2.9726024 302.76001
-2.5586979 -3.9764159 -2.105269 302.76001
-25.073202 -38.96571 -2.1608188 302.76001
-2.7272544 -4.2383657 -2.1051803 302.76001
-25.103426 -39.01268 -1.0770737 302.76001
-2.9255347 -4.5465093 -2.1111412 302.76001
-25.11993 -39.03833 0 302.76001
-3.1404197 -4.8804569 -2.1123164 302.76001
-25.144541 -39.076572 1.0788378 302.76001
-3.3844914 -5.2597632 -2.1134124 302.76001
-25.167253 -39.111874 2.1689243 302.76001
-3.6654887 -5.696455 -2.1137192 302.76001
-25.172098 -39.119404 3.2528839 302.76001
-4.0052252 -6.224432 -2.1224077 302.76001
-25.188038 -39.144173 4.3426981 302.76001
-4.3951464 -6.8303995 -2.1262991 302.76001
-25.193914 -39.153309 5.4446802 302.76001
-4.8989515 -7.6133523 -2.1451235 302.76001
-25.225914 -39.203037 6.551713 302.76001
-5.5237379 -8.5843191 -2.1697664 302.76001
-25.223331 -39.199024 7.6582489 302.76001
-6.3524671 -9.8722286 -2.211827 302.76001
-7.5388818 -11.639969 -2.2784417 302.92999
-9.1030521 -14.055034 -2.3534172 302.92999
-11.3937 -17.591774 -2.4510121 302.92999
-13.584632 -20.974554 -2.3314018 302.92999
-22.974649 -35.47266 -2.9553027 302.92999
-2.5704849 -3.9688067 -2.105269 302.92999
-25.074669 -38.715073 -2.1510363 302.92999
-2.7428274 -4.2349019 -2.1074927 302.92999
-25.09407 -38.745029 -1.0717353 302.92999
-2.933948 -4.5299902 -2.1075039 302.92999
-25.110619 -38.770576 0 302.92999
-3.1538649 -4.8695402 -2.1116323 302.92999
-25.137548 -38.812157 1.0735921 302.92999
-3.4011126 -5.2512884 -2.1140525 302.92999
-25.157209 -38.842514 2.1581171 302.92999
-3.6823742 -5.685554 -2.1137192 302.92999
-25.169838 -38.862015 3.2376769 302.92999
-4.0205407 -6.2076802 -2.1207538 302.92999
-25.187157 -38.888752 4.3226333 302.92999
-4.4174967 -6.8205767 -2.1273122 302.92999
-25.18903 -38.891644 5.4186625 302.92999
-4.9257512 -7.6053171 -2.1469679 302.92999
-25.22369 -38.94516 6.5210948 302.92999
-5.5534377 -8.57446 -2.1714296 302.92999
-25.21615 -38.933517 7.6209612 302.92999
-6.380662 -9.8516874 -2.2114565 302.92999
-7.579977 -11.632099 -2.2810357 303.09
-9.1509151 -14.042833 -2.355644 303.09
-11.388555 -17.476675 -2.4393969 303.09
-13.645325 -20.939875 -2.3317733 303.09
-2.5825553 -3.9631438 -2.1060824 303.09
-25.059433 -38.455761 -2.1405084 303.09
-2.754643 -4.2272263 -2.1074927 303.09
-25.089733 -38.502258 -1.0669538 303.09
-2.9496379 -4.5264621 -2.1096864 303.09
-25.092127 -38.505932 0 303.09
-3.1653986 -4.8575649 -2.1102643 303.09
-25.127939 -38.56089 1.0685786 303.09
-3.4188669 -5.2465329 -2.1159732 303.09
-25.147781 -38.591339 2.1480551 303.09
-3.6961522 -5.67205 -2.1125276 303.09
-25.154089 -38.601017 3.2217724 303.09
-4.0410089 -6.2012606 -2.1224077 303.09
-25.173891 -38.631409 4.3018255 303.09
-4.4354696 -6.8065929 -2.1268058 303.09
-25.183662 -38.6464 5.3942709 303.09
-4.9448447 -7.5882711 -2.1460457 303.09
-25.206917 -38.682091 6.4888067 303.09
-5.5827003 -8.5671129 -2.1735089 303.09
-25.210562 -38.687683 7.5865917 303.09
-6.4124403 -9.8404179 -2.2129378 303.09
-7.6239238 -11.615149 -2.2826569 303.28
-9.1996069 -14.015721 -2.3562007 303.28
-11.397395 -17.364082 -2.4289434 303.28
-13.714689 -20.89451 -2.3317733 303.28
-23.127411 -35.234917 -2.947211 303.28
-2.5936782 -3.951503 -2.1044555 303.28
-23.7222 -36.141087 -2.0160375 303.28
-2.7656076 -4.2134399 -2.1051803 303.28
-25.096584 -38.234978 -1.0618474 303.28
-2.9656544 -4.5182133 -2.1104138 303.28
-25.112127 -38.258656 0 303.28
-3.1814895 -4.8470411 -2.1102643 303.28
-25.144859 -38.308525 1.06389 303.28
-3.4341669 -5.2319984 -2.1146929 303.28
-25.142967 -38.305641 2.1367817 303.28
-3.7159889 -5.6613579 -2.1131234 303.28
-25.154961 -38.323914 3.2055891 303.28
-4.0636606 -6.1910405 -2.1235101 303.28
-25.188217 -38.37458 4.2825041 303.28
-4.4590783 -6.7934647 -2.1273122 303.28
-25.190685 -38.378342 5.3684855 303.28
-4.9721169 -7.5750856 -2.1469679 303.28
-25.213333 -38.412846 6.4576321 303.28
-5.6121531 -8.550189 -2.1739247 303.28
-25.21093 -38.409184 7.5483313 303.28
-6.451508 -9.8289576 -2.2151597 303.28
-7.6628547 -11.603694 -2.2846024 303.44
-9.2419844 -13.994935 -2.3570356 303.44
-11.393296 -17.252621 -2.417793 303.44
-13.783957 -20.872747 -2.3336313 303.44
-16.048557 -24.301981 -2.0364704 303.44
-2.6067166 -3.947294 -2.1060824 303.44
-25.058277 -37.945202 -2.1205707 303.44
-2.7804139 -4.2103205 -2.1074927 303.44
-25.088669 -37.991222 -1.0570196 303.44
-2.9772334 -4.5083594 -2.1096864 303.44
-25.098736 -38.00647 0 303.44
-3.1981196 -4.8428426 -2.1123164 303.44
-25.132742 -38.057961 1.0588764 303.44
-3.4498081 -5.223969 -2.1153331 303.44
-25.135342 -38.061901 2.1270924 303.44
-3.7307317 -5.6493654 -2.1125276 303.44
-25.151937 -38.087032 3.1916378 303.44
-4.0830522 -6.1828771 -2.1246128 303.44
-25.177862 -38.126289 4.2626252 303.44
-4.4780321 -6.7809863 -2.1273122 303.44
-25.170778 -38.115562 5.3415384 303.44
-4.9953961 -7.5644193 -2.1478901 303.44
-25.214638 -38.181976 6.4306321 303.44
-5.6381636 -8.5377483 -2.1747563 303.44
-25.210423 -38.175594 7.5162315 303.44
-6.4843459 -9.8191032 -2.2170112 303.44
-7.702549 -11.584494 -2.2855749 303.62
-9.293581 -13.977376 -2.358984 303.62
-11.399047 -17.143959 -2.4075716 303.62
-13.846155 -20.824366 -2.3330739 303.62
-14.357357 -21.593204 -1.8132498 303.62
-2.6191044 -3.9390852 -2.1060824 303.62
-25.061214 -37.691608 -2.1107883 303.62
-2.7895401 -4.1954174 -2.1044092 303.62
-25.087227 -37.730732 -1.0519596 303.62
-2.9903505 -4.4974327 -2.1089587 303.62
-25.098417 -37.747562 0 303.62
-3.2101963 -4.8280768 -2.1102643 303.62
-25.125975 -37.789005 1.0535843 303.62
-3.4641044 -5.20995 -2.1140525 303.62
-25.137539 -37.8064 2.1172168 303.62
-3.7516325 -5.6423869 -2.114315 303.62
-25.164314 -37.846672 3.1781049 303.62
-4.0981984 -6.1636157 -2.1224077 303.62
-25.180641 -37.871227 4.2429318 303.62
-4.5046692 -6.7749405 -2.1298447 303.62
-25.166113 -37.849373 5.3152881 303.62
-5.0212908 -7.55193 -2.1488123 303.62
-25.206165 -37.909615 6.3980656 303.62
-5.6692905 -8.5265093 -2.1764195 303.62
-25.207846 -37.91214 7.4799166 303.62
-6.5151615 -9.7986841 -2.2170112 303.62
-7.745492 -11.570078 -2.2875204 303.79999
-9.3429546 -13.95634 -2.3603759 303.79999
-11.397596 -17.025526 -2.3959565 303.79999
-13.897108 -20.759253 -2.3306587 303.79999
-14.408475 -21.523123 -1.8111571 303.79999
-2.6294336 -3.9278011 -2.1044555 303.79999
-25.061695 -37.436714 -2.1009126 303.79999
-2.8098931 -4.1973681 -2.1098051 303.79999
-25.088846 -37.477272 -1.0470854 303.79999
-3.0055013 -4.4895639 -2.1096864 303.79999
-25.101171 -37.495682 0 303.79999
-3.2284849 -4.8226528 -2.1123164 303.79999
-25.133339 -37.543732 1.0489422 303.79999
-3.4804549 -5.1990414 -2.1140525 303.79999
-25.139492 -37.552925 2.1074343 303.79999
-3.76934 -5.6305728 -2.114315 303.79999
-25.147684 -37.565163 3.1610844 303.79999
-4.1143332 -6.1459174 -2.1207538 303.79999
-25.179853 -37.613216 4.2228675 303.79999
-4.5259309 -6.7607551 -2.1298447 303.79999
-25.17881 -37.611656 5.2929873 303.79999
-5.0460739 -7.537735 -2.1492734 303.79999
-25.214962 -37.665661 6.3702312 303.79999
-5.698226 -8.5119085 -2.1772513 303.79999
-25.204962 -37.650723 7.4439254 303.79999
-6.5502863 -9.7847004 -2.2184925 303.79999
-7.7812667 -11.557946 -2.2891417 303.95001
-9.3883095 -13.944975 -2.3626025 303.95001
-11.394427 -16.924774 -2.3859677 303.95001
-13.950295 -20.721146 -2.3304729 303.95001
-23.056505 -34.247105 -2.8869414 303.95001
-2.640728 -3.9224195 -2.105269 303.95001
-25.09156 -37.269882 -2.0952294 303.95001
-2.8146882 -4.1808124 -2.1051803 303.95001
-25.076328 -37.247261 -1.0424896 303.95001
-3.0141232 -4.4770441 -2.1075039 303.95001
-25.08197 -37.255638 0 303.95001
-3.2400498 -4.8126254 -2.1116323 303.95001
-25.115412 -37.305309 1.0441144 303.95001
-3.4919376 -5.1867685 -2.1127722 303.95001
-25.126146 -37.321259 2.0981176 303.95001
-3.7819355 -5.6175179 -2.1131234 303.95001
-25.133408 -37.332043 3.1469936 303.95001
-4.1368508 -6.1446939 -2.1240613 303.95001
-25.171476 -37.388584 4.2050323 303.95001
-4.5382123 -6.7408581 -2.1273122 303.95001
-25.152941 -37.361053 5.2669697 303.95001
-5.0657902 -7.5244985 -2.1492734 303.95001
-25.186285 -37.410583 6.3382215 303.95001
-5.7248607 -8.5034523 -2.1789145 303.95001
-25.18882 -37.414349 7.4102044 303.95001
-6.5835633 -9.7789307 -2.2210846 303.95001
-7.8228741 -11.53698 -2.2901144 304.14001
-9.4422817 -13.925241 -2.3645511 304.14001
-11.389173 -16.796467 -2.3731911 304.14001
-14.014462 -20.668179 -2.3297298 304.14001
-14.54154 -21.445499 -1.8118546 304.14001
-2.6557715 -3.9166653 -2.1068959 304.14001
-25.255377 -37.245998 -2.0985835 304.14001
-2.8337154 -4.1790924 -2.1090343 304.14001
-25.246838 -37.233402 -1.0444393 304.14001
-3.0289531 -4.4670243 -2.1075039 304.14001
-25.093132 -37.006725 0 304.14001
-3.257046 -4.8034101 -2.1123164 304.14001
-25.125647 -37.054676 1.0394258 304.14001
-3.5112453 -5.1782966 -2.1140525 304.14001
-25.127558 -37.057495 2.0879624 304.14001
-3.8037574 -5.6096864 -2.1149106 304.14001
-25.142857 -37.080055 3.1327631 304.14001
-4.1582837 -6.1325331 -2.1246128 304.14001
-25.17127 -37.12196 4.1844101 304.14001
-4.5583692 -6.722569 -2.1262991 304.14001
-25.173016 -37.124535 5.2453656 304.14001
-5.0939908 -7.5124907 -2.1506567 304.14001
-25.197943 -37.161297 6.3101082 304.14001
-5.7563214 -8.4892788 -2.180162 304.14001
-25.198671 -37.162369 7.3768077 304.14001
-6.6148524 -9.7554188 -2.2207143 304.14001
-7.8617339 -11.524871 -2.2920599 304.29999
-9.4878273 -13.908635 -2.366221 304.29999
-11.392376 -16.700598 -2.3641312 304.29999
-14.066513 -20.620737 -2.3288009 304.29999
-14.532788 -21.30427 -1.8033444 304.29999
-2.66258 -3.9031963 -2.103642 304.29999
-2.8422546 -4.1665893 -2.1067219 304.29999
-3.0424654 -4.4600873 -2.1082313 304.29999
-25.072401 -36.754765 0 304.29999
-3.2693877 -4.7927432 -2.1116323 304.29999
-25.11973 -36.824146 1.034923 304.29999
-3.525692 -5.1684713 -2.1140525 304.29999
-25.117235 -36.820492 2.0785525 304.29999
-3.817256 -5.5958881 -2.1137192 304.29999
-25.129377 -36.838291 3.1182539 304.29999
-4.1743093 -6.1193089 -2.1240613 304.29999
-25.141296 -36.855762 4.162302 304.29999
-4.5760341 -6.7082152 -2.1257927 304.29999
-25.150093 -36.86866 5.2191153 304.29999
-5.1193366 -7.5046668 -2.1525013 304.29999
-25.183313 -36.917355 6.2806039 304.29999
-5.7833128 -8.4780197 -2.1814094 304.29999
-25.17779 -36.90926 7.3404927 304.29999
-6.6464992 -9.7434034 -2.2221954 304.29999
-7.8990188 -11.501742 -2.2923841 304.48001
-9.5303545 -13.877127 -2.3659427 304.48001
-11.397553 -16.595951 -2.3543746 304.48001
-14.121079 -20.56167 -2.3271286 304.48001
-23.111399 -33.652454 -2.8547139 304.48001
-2.6758635 -3.8963184 -2.1044555 304.48001
-2.8542855 -4.1561184 -2.1059511 304.48001
-3.0490794 -4.4397573 -2.1031389 304.48001
-25.074522 -36.510952 0 304.48001
-3.2823005 -4.7793503 -2.1102643 304.48001
-25.109648 -36.562099 1.0297701 304.48001
-3.5397666 -5.1542454 -2.1127722 304.48001
-25.118555 -36.575069 2.0691426 304.48001
-3.8326554 -5.5807204 -2.1125276 304.48001
-25.12413 -36.583187 3.1033261 304.48001
-4.1956897 -6.109334 -2.125164 304.48001
-25.152117 -36.623936 4.1450238 304.48001
-4.5959907 -6.6922112 -2.1252861 304.48001
-25.14884 -36.619167 5.1949563 304.48001
-5.1417861 -7.4869428 -2.1520402 304.48001
-25.190409 -36.679695 6.2536039 304.48001
-5.8099184 -8.4598083 -2.1814094 304.48001
-25.180775 -36.665668 7.3077445 304.48001
-6.6826391 -9.7305756 -2.2240469 304.48001
-7.9465752 -11.497737 -2.2962749 304.64999
-9.577117 -13.856936 -2.3673344 304.64999
-11.407215 -16.504866 -2.3462441 304.64999
-14.187686 -20.527872 -2.3280578 304.64999
-23.523092 -34.035084 -2.89308 304.64999
-2.6874123 -3.8883619 -2.1044555 304.64999
-2.8708014 -4.1537042 -2.1090343 304.64999
-3.0707128 -4.4429517 -2.1089587 304.64999
-25.074715 -36.28009 0 304.64999
-3.2964668 -4.7695904 -2.1102643 304.64999
-25.110022 -36.331177 1.0253601 304.64999
-3.5571983 -5.1468377 -2.1140525 304.64999
-25.119055 -36.344246 2.0602918 304.64999
-3.8524535 -5.5740361 -2.114315 304.64999
-25.127069 -36.355843 3.0903513 304.64999
-4.2127051 -6.0952768 -2.1246128 304.64999
-25.141788 -36.37714 4.1255164 304.64999
-4.6169267 -6.6801367 -2.1257927 304.64999
-25.148956 -36.387508 5.1726551 304.64999
-5.1661906 -7.4748559 -2.1529624 304.64999
-25.17639 -36.427204 6.2232642 304.64999
-5.8394427 -8.4489708 -2.1830728 304.64999
-25.172758 -36.421947 7.2740231 304.64999
-6.7148333 -9.7155552 -2.225158 304.64999
-7.979528 -11.472488 -2.2959507 304.82001
-9.6238441 -13.836588 -2.3687263 304.82001
-11.399422 -16.389408 -2.3346291 304.82001
-14.254216 -20.49386 -2.3289866 304.82001
-15.168694 -21.808643 -1.8576149 304.82001
-2.6999807 -3.881871 -2.105269 304.82001
-25.03171 -35.989098 -2.0443602 304.82001
-2.8767905 -4.1360774 -2.1044092 304.82001
-25.054445 -36.021786 -1.0187218 304.82001
-3.0860093 -4.4368801 -2.1104138 304.82001
-25.066908 -36.039703 0 304.82001
-3.3095307 -4.7582455 -2.1095803 304.82001
-25.096689 -36.08252 1.0204394 304.82001
-3.5713718 -5.1347051 -2.1134124 304.82001
-25.10586 -36.095703 2.0504162 304.82001
-3.8657045 -5.557879 -2.1125276 304.82001
-25.118628 -36.114063 3.0761211 304.82001
-4.2274785 -6.0780158 -2.1229589 304.82001
-25.143864 -36.150345 4.1082387 304.82001
-4.6367269 -6.666409 -2.1257927 304.82001
-25.141113 -36.146389 5.1489606 304.82001
-5.19168 -7.4642878 -2.1543458 304.82001
-25.175795 -36.196255 6.1965432 304.82001
-5.867837 -8.4364252 -2.1843202 304.82001
-25.173658 -36.19318 7.2432203 304.82001
-6.7447524 -9.6972027 -2.2255282 304.82001
-8.0211897 -11.455446 -2.2975719 305
-9.6831694 -13.828999 -2.372623 305
-11.418951 -16.307953 -2.3281245 305
-14.311676 -20.439192 -2.3278718 305
-14.733615 -21.041782 -1.7962292 305
-2.7111146 -3.8718731 -2.1044555 305
-25.032351 -35.749901 -2.0352299 305
-2.8876531 -4.1239963 -2.1028676 305
-25.059685 -35.788937 -1.0143582 305
-3.0988643 -4.4256372 -2.1096864 305
-25.064142 -35.795307 0 305
-3.3266187 -4.7509041 -2.1109483 305
-25.100971 -35.8479 1.0160294 305
-3.588572 -5.1250119 -2.1140525 305
-25.102251 -35.849728 2.0409131 305
-3.8842411 -5.5472713 -2.1131234 305
-25.119812 -35.874809 3.0624487 305
-4.2476549 -6.0662799 -2.1235101 305
-25.140806 -35.904793 4.0892887 305
-4.6587567 -6.6533942 -2.1262991 305
-25.144026 -35.909389 5.1264272 305
-5.2206855 -7.4559116 -2.1566513 305
-25.179193 -35.959614 6.1695437 305
-5.8965559 -8.421154 -2.1851518 305
-25.169512 -35.945789 7.2094994 305
-6.7842026 -9.6888456 -2.2284906 305
-8.059967 -11.442683 -2.2995174 305.16
-9.7194681 -13.798666 -2.3720663 305.16
-11.432417 -16.230528 -2.3216202 305.16
-14.373284 -20.405659 -2.328615 305.16
-23.636686 -33.55685 -2.8701999 305.16
-2.7208643 -3.8627934 -2.103642 305.16
-25.029692 -35.534492 -2.026938 305.16
-2.8991582 -4.1159163 -2.1028676 305.16
-25.039782 -35.548817 -1.0095303 305.16
-3.1112111 -4.416966 -2.1096864 305.16
-25.05459 -35.569839 0 305.16
-3.340955 -4.7431321 -2.1116323 305.16
-25.086988 -35.615837 1.0114336 305.16
-3.6028697 -5.1149707 -2.1140525 305.16
-25.092968 -35.624325 2.0320623 305.16
-3.8975179 -5.5332808 -2.111932 305.16
-25.116493 -35.657722 3.0498927 305.16
-4.26015 -6.0481071 -2.121305 305.16
-25.144646 -35.697693 4.0736828 305.16
-4.6784325 -6.6419401 -2.1268058 305.16
-25.138964 -35.689625 5.1050553 305.16
-5.2414856 -7.4413033 -2.1566513 305.16
-25.167742 -35.73048 6.1422658 305.16
-5.9234285 -8.4094534 -2.1863995 305.16
-25.161827 -35.722084 7.1786966 305.16
-6.8146276 -9.6746826 -2.2296016 305.16
-8.0973063 -11.423549 -2.3004901 305.32999
-9.7752562 -13.790772 -2.3756847 305.32999
-11.473631 -16.186813 -2.3202264 305.32999
-14.40037 -20.315807 -2.3232274 305.32999
-15.295296 -21.578354 -1.8495232 305.32999
-2.7365396 -3.8606658 -2.1068959 305.32999
-25.031036 -35.313381 -2.018553 305.32999
-2.9145591 -4.1118131 -2.1051803 305.32999
-25.028364 -35.309608 -1.0048417 305.32999
-3.1232255 -4.4061956 -2.1089587 305.32999
-25.050144 -35.340336 0 305.32999
-3.3550136 -4.7331986 -2.1116323 305.32999
-25.082708 -35.386276 1.0070236 305.32999
-3.6180303 -5.1042585 -2.1140525 305.32999
-25.096889 -35.406284 2.0238636 305.32999
-3.9128141 -5.5201349 -2.1113362 305.32999
-25.117189 -35.434925 3.0371969 305.32999
-4.2825232 -6.0417147 -2.1235101 305.32999
-25.135296 -35.460468 4.0551047 305.32999
-4.6992378 -6.6296082 -2.1273122 305.32999
-25.133318 -35.457676 5.0825224 305.32999
-5.2657924 -7.4288945 -2.1575735 305.32999
-25.159115 -35.494072 6.1144309 305.32999
-5.9517479 -8.3966293 -2.1876469 305.32999
-25.160427 -35.495922 7.1482177 305.32999
-6.8455763 -9.6576281 -2.2303421 305.32999
-8.1380415 -11.409114 -2.3024356 305.5
-9.8207312 -13.768157 -2.3767982 305.5
-11.518147 -16.147846 -2.3195295 305.5
-14.412017 -20.204903 -2.3154244 305.5
-23.656979 -33.165863 -2.8487148 305.5
-2.7437384 -3.8465796 -2.103642 305.5
-25.02433 -35.082817 -2.009609 305.5
-2.9299614 -4.1076546 -2.1074927 305.5
-25.028521 -35.088692 -1.0006638 305.5
-3.1352031 -4.3953929 -2.1082313 305.5
-25.045719 -35.112801 0 305.5
-3.3679512 -4.721693 -2.1109483 305.5
-25.081932 -35.16357 1.0027992 305.5
-3.6309583 -5.090416 -2.1127722 305.5
-25.088137 -35.172272 2.0147333 305.5
-3.9291756 -5.5085011 -2.1113362 305.5
-25.1052 -35.196194 3.0231061 305.5
-4.3004308 -6.0289812 -2.1235101 305.5
-25.127073 -35.226856 4.0368977 305.5
-4.7211347 -6.6187868 -2.1283252 305.5
-25.12421 -35.222847 5.0595245 305.5
-5.2923317 -7.4195752 -2.1594181 305.5
-25.137806 -35.241905 6.0838127 305.5
-5.9789071 -8.3821182 -2.1884785 305.5
-25.153322 -35.263657 7.1164422 305.5
-6.8787661 -9.6436749 -2.2318234 305.5
-8.1807508 -11.393109 -2.3043809 305.67999
-9.8639364 -13.737237 -2.3767982 305.67999
-11.546806 -16.080925 -2.3151157 305.67999
-14.426639 -20.091589 -2.3076215 305.67999
-23.800621 -33.146481 -2.8534584 305.67999
-2.7547436 -3.8364568 -2.1028285 305.67999
-2.9396224 -4.0939322 -2.1051803 305.67999
-25.029009 -34.85722 -0.99630016 305.67999
-3.1446497 -4.3794684 -2.1053214 305.67999
-25.050919 -34.887733 0 305.67999
-3.3794796 -4.7065096 -2.1088963 305.67999
-25.090818 -34.943302 0.99876046 305.67999
-3.6480377 -5.080523 -2.1134124 305.67999
-25.088978 -34.940739 2.0059755 305.67999
-3.9486887 -5.4992318 -2.1125276 305.67999
-25.102772 -34.959949 3.0095732 305.67999
-4.3204713 -6.0170031 -2.1240613 305.67999
-25.123793 -34.989223 4.0186911 305.67999
-4.7385192 -6.5992074 -2.1268058 305.67999
-25.120039 -34.983997 5.0365267 305.67999
-5.3144798 -7.4013314 -2.158957 305.67999
-25.159449 -35.038883 6.0623803 305.67999
-6.0109158 -8.3712387 -2.1905575 305.67999
-25.153477 -35.030563 7.0853152 305.67999
-6.9147606 -9.6299992 -2.2336748 305.67999
-25.156569 -35.03487 8.1263256 305.67999
-8.2188148 -11.370551 -2.3050294 305.85999
-9.911685 -13.712601 -2.3779116 305.85999
-11.598433 -16.046179 -2.3153479 305.85999
-14.457024 -20.000978 -2.3024194 305.85999
-23.520115 -32.539566 -2.8075585 305.85999
-2.7710638 -3.8337066 -2.1060824 305.85999
-25.01956 -34.614017 -1.991721 305.85999
-2.9503071 -4.0816855 -2.1036384 305.85999
-25.032976 -34.632576 -0.99212217 305.85999
-3.1649408 -4.3786268 -2.1096864 305.85999
-25.039722 -34.641911 0 305.85999
-3.3942487 -4.6958694 -2.1088963 305.85999
-25.078657 -34.695774 0.99393266 305.85999
-3.6628706 -5.0675015 -2.1127722 305.85999
-25.089781 -34.711166 1.997311 305.85999
-3.9670639 -5.4883466 -2.1131234 305.85999
-25.114302 -34.74509 2.9978542 305.85999
-4.3416052 -6.0065165 -2.125164 305.85999
-25.134434 -34.772942 4.0028992 305.85999
-4.7660284 -6.5936966 -2.1298447 305.85999
-25.127417 -34.763233 5.0160842 305.85999
-5.3445454 -7.3940625 -2.1617236 305.85999
-25.160343 -34.808788 6.0362158 305.85999
-6.0394769 -8.355485 -2.1913893 305.85999
-25.147793 -34.791424 7.0528908 305.85999
-6.9461312 -9.6098213 -2.2340453 305.85999
-25.138708 -34.778854 8.0852213 305.85999
-8.2528563 -11.350748 -2.3056779 306.01999
-9.9580927 -13.696082 -2.3798599 306.01999
-11.658383 -16.034615 -2.318368 306.01999
-14.510479 -19.957308 -2.302048 306.01999
-23.588598 -32.4431 -2.8049078 306.01999
-2.7785354 -3.8215201 -2.103642 306.01999
-25.010386 -34.398586 -1.983336 306.01999
-2.9638643 -4.076416 -2.1051803 306.01999
-25.027294 -34.421841 -0.98808354 306.01999
-3.1749649 -4.3667579 -2.1082313 306.01999
-25.042271 -34.44244 0 306.01999
-3.4084542 -4.6878924 -2.1095803 306.01999
-25.071976 -34.483295 0.98984754 306.01999
-3.6792359 -5.0603185 -2.1140525 306.01999
-25.072653 -34.484226 1.9882739 306.01999
-3.9778838 -5.4710703 -2.1107404 306.01999
-25.091557 -34.510227 2.983624 306.01999
-4.3561006 -5.9912591 -2.1240613 306.01999
-25.12019 -34.549606 3.9852498 306.01999
-4.7798719 -6.5741019 -2.1278186 306.01999
-25.107578 -34.532261 4.9928541 306.01999
-5.3617396 -7.3743868 -2.1603403 306.01999
-25.149134 -34.589417 6.0103297 306.01999
-6.0662379 -8.3433342 -2.1926367 306.01999
-25.14156 -34.578999 7.0240335 306.01999
-6.9764071 -9.5951557 -2.2351561 306.01999
-25.122463 -34.552734 8.0489321 306.01999
-8.2931376 -11.331136 -2.3069749 306.20001
-10.008089 -13.674319 -2.38153 306.20001
-11.713393 -16.004322 -2.3192971 306.20001
-14.604859 -19.955009 -2.3070641 306.20001
-2.7916064 -3.8142467 -2.1044555 306.20001
-25.008596 -34.169914 -1.9746715 306.20001
-2.9755661 -4.0655956 -2.1044092 306.20001
-25.018402 -34.183311 -0.98348778 306.20001
-3.1897681 -4.3582654 -2.1089587 306.20001
-25.033411 -34.203819 0 306.20001
-3.4242747 -4.678678 -2.1102643 306.20001
-25.067999 -34.251076 0.98543751 306.20001
-3.6928771 -5.0456767 -2.1127722 306.20001
-25.078211 -34.26503 1.9801683 306.20001
-3.9973073 -5.461628 -2.111932 306.20001
-25.092621 -34.284721 2.9709282 306.20001
-4.3726301 -5.9744415 -2.1229589 306.20001
-25.120405 -34.322681 3.9681578 306.20001
-4.8016438 -6.5606146 -2.1283252 306.20001
-25.120911 -34.323372 4.9740376 306.20001
-5.3883286 -7.3622174 -2.1617236 306.20001
-25.136024 -34.344021 5.9813814 306.20001
-6.0947299 -8.3273926 -2.1934683 306.20001
-25.144001 -34.354919 6.9945273 306.20001
-7.0123205 -9.5811214 -2.2370076 306.20001
-25.136866 -34.345169 8.0189371 306.20001
-8.3208694 -11.298534 -2.3053536 306.37
-10.063886 -13.665297 -2.3851485 306.37
-11.765539 -15.975895 -2.3202264 306.37
-14.705334 -19.967709 -2.3135664 306.37
-24.379076 -33.103249 -2.8748038 306.37
-2.8029113 -3.8059468 -2.1044555 306.37
-25.012724 -33.96365 -1.9670318 306.37
-2.9876158 -4.0567489 -2.1044092 306.37
-25.011818 -33.962421 -0.97926342 306.37
-3.1993709 -4.3442817 -2.1067765 306.37
-25.028048 -33.984455 0 306.37
-3.4381416 -4.6684976 -2.1102643 306.37
-25.07703 -34.050972 0.98181659 306.37
-3.7078316 -5.0346975 -2.1127722 306.37
-25.079067 -34.053734 1.9722492 306.37
-4.0123625 -5.4482064 -2.1113362 306.37
-25.090122 -34.068748 2.9586511 306.37
-4.3869176 -5.9567976 -2.121305 306.37
-25.128843 -34.121326 3.9534807 306.37
-4.8222361 -6.5478969 -2.1288316 306.37
-25.118979 -34.107929 4.9535952 306.37
-5.4136109 -7.3508983 -2.1631069 306.37
-25.120369 -34.109818 5.953547 306.37
-6.1205711 -8.3108473 -2.1938841 306.37
-25.133474 -34.127613 6.9634004 306.37
-7.0442138 -9.5650206 -2.2381184 306.37
-25.123276 -34.113762 7.9822769 306.37
-8.3684568 -11.292824 -2.3092446 306.54001
-10.100849 -13.630602 -2.3843136 306.54001
-11.80934 -15.936128 -2.3195295 306.54001
-14.772813 -19.93519 -2.314867 306.54001
-14.911295 -20.122065 -1.7513061 306.54001
-2.8109279 -3.7932098 -2.102015 306.54001
-24.998007 -33.733589 -1.9579946 306.54001
-2.9996393 -4.0478668 -2.1044092 306.54001
-25.01367 -33.754726 -0.9754104 306.54001
-3.2133558 -4.3362665 -2.1075039 306.54001
-25.027555 -33.773464 0 306.54001
-3.451978 -4.6582756 -2.1102643 306.54001
-25.06962 -33.830227 0.97759223 306.54001
-3.7238817 -5.0251961 -2.1134124 306.54001
-25.074133 -33.836315 1.9639573 306.54001
-4.0307832 -5.4393454 -2.1125276 306.54001
-25.081812 -33.84668 2.9458158 306.54001
-4.4068613 -5.9468441 -2.1224077 306.54001
-25.119711 -33.897823 3.9362028 306.54001
-4.8393388 -6.5304513 -2.1278186 306.54001
-25.106527 -33.880032 4.931294 306.54001
-5.4377151 -7.3379307 -2.1640291 306.54001
-25.128309 -33.909424 5.9315577 306.54001
-6.1521912 -8.3020811 -2.1963792 306.54001
-25.13122 -33.913353 6.9348674 306.54001
-7.0772433 -9.5503941 -2.2395997 306.54001
-25.115555 -33.892216 7.9478388 306.54001
-8.3979931 -11.258568 -2.3076234 306.72
-10.162568 -13.624203 -2.388767 306.72
-11.864098 -15.905318 -2.3204587 306.72
-14.828224 -19.879105 -2.3137524 306.72
-24.683426 -33.091244 -2.886802 306.72
-2.8228307 -3.7843604 -2.102015 306.72
-24.993965 -33.507561 -1.9494232 306.72
-3.0112379 -4.0369439 -2.1036384 306.72
-25.00841 -33.526924 -0.97109324 306.72
-3.2269628 -4.3261504 -2.1075039 306.72
-25.028303 -33.553593 0 306.72
-3.4654717 -4.6459017 -2.1095803 306.72
-25.06938 -33.608662 0.97346073 306.72
-3.7385175 -5.0119538 -2.1127722 306.72
-25.06922 -33.608448 1.9552927 306.72
-4.0478516 -5.4266553 -2.1125276 306.72
-25.086624 -33.631783 2.9339573 306.72
-4.4255223 -5.9329705 -2.1224077 306.72
-25.114159 -33.668697 3.9187391 306.72
-4.8713989 -6.5307245 -2.1328838 306.72
-25.115448 -33.670422 4.9122453 306.72
-5.464232 -7.3254914 -2.1654127 306.72
-25.121035 -33.677914 5.9048362 306.72
-6.1794124 -8.2842808 -2.196795 306.72
-25.146778 -33.712425 6.9099007 306.72
-7.1130877 -9.5359907 -2.2414513 306.72
-25.118494 -33.674507 7.9152522 306.72
-8.4341373 -11.241386 -2.3089204 306.88
-10.198196 -13.592602 -2.3882103 306.88
-11.900123 -15.861003 -2.3188326 306.88
-14.872924 -19.823282 -2.3120801 306.88
-24.811659 -33.070061 -2.8909874 306.88
-2.8366773 -3.7808473 -2.1044555 306.88
-24.99152 -33.309788 -1.9419699 306.88
-3.023607 -4.0299954 -2.1044092 306.88
-24.992741 -33.311417 -0.96686888 306.88
-3.2423851 -4.3215923 -2.1096864 306.88
-25.024681 -33.353989 0 306.88
-3.4806879 -4.6392126 -2.1109483 306.88
-25.061138 -33.40258 0.96951491 306.88
-3.7524989 -5.0014944 -2.1127722 306.88
-25.074249 -33.420055 1.9483984 306.88
-4.0629897 -5.4153304 -2.1125276 306.88
-25.079866 -33.42754 2.9222381 306.88
-4.4455342 -5.9252024 -2.1240613 306.88
-25.117254 -33.477375 3.9046197 306.88
-4.8849726 -6.5109048 -2.1308577 306.88
-25.105658 -33.461918 4.892035 306.88
-5.4870028 -7.3133173 -2.1663349 306.88
-25.112762 -33.471386 5.8808985 306.88
-6.2048702 -8.2701225 -2.1976266 306.88
-25.133043 -33.498417 6.8803945 306.88
-7.1396894 -9.5160894 -2.2414513 306.88
-25.103918 -33.459599 7.8811841 306.88
-8.4765482 -11.224284 -2.3108659 307.06
-10.242043 -13.562077 -2.3884888 307.06
-11.960667 -15.837806 -2.3209233 307.06
-14.930326 -19.770103 -2.3113372 307.06
-24.945488 -33.031754 -2.8944752 307.06
-2.8507433 -3.774833 -2.1060824 307.06
-24.991295 -33.092411 -1.9338644 307.06
-3.0340283 -4.0175309 -2.1028676 307.06
-25.00569 -33.111469 -0.96334082 307.06
-3.2537003 -4.3084116 -2.1082313 307.06
-25.02207 -33.13316 0 307.06
-3.4929798 -4.6252556 -2.1095803 307.06
-25.057503 -33.18008 0.96533692 307.06
-3.7704768 -4.9927049 -2.1140525 307.06
-25.067146 -33.192848 1.9397339 307.06
-4.0788321 -5.4010158 -2.111932 307.06
-25.082558 -33.213257 2.9103796 307.06
-4.466444 -5.9142756 -2.125164 307.06
-25.108295 -33.247337 3.88697 307.06
-4.906569 -6.4970703 -2.1313641 307.06
-25.106506 -33.244968 4.8718247 307.06
-5.5111241 -7.297596 -2.166796 307.06
-25.111565 -33.251663 5.8561258 307.06
-6.2343578 -8.2552719 -2.198874 307.06
-25.112085 -33.252354 6.846025 307.06
-7.1754723 -9.5014553 -2.2433028 307.06
-25.1106 -33.250389 7.8504486 307.06
-8.5217543 -11.214798 -2.3141081 307.23001
-10.290625 -13.542667 -2.3904371 307.23001
-11.983568 -15.770616 -2.3162773 307.23001
-15.025064 -19.773283 -2.3169107 307.23001
-24.970959 -32.862282 -2.8861043 307.23001
-2.8564038 -3.7590842 -2.102015 307.23001
-24.995092 -32.894039 -1.9265974 307.23001
-3.0459352 -4.0085115 -2.1028676 307.23001
-25.002207 -32.903404 -0.95944142 307.23001
-3.2664692 -4.298739 -2.1082313 307.23001
-25.016205 -32.921825 0 307.23001
-3.5066879 -4.614871 -2.1095803 307.23001
-25.056644 -32.975044 0.96153039 307.23001
-3.7829812 -4.9784784 -2.1127722 307.23001
-25.06278 -32.983116 1.9318147 307.23001
-4.0948391 -5.3888898 -2.111932 307.23001
-25.060284 -32.979832 2.8964283 307.23001
-4.47932 -5.8948741 -2.1229589 307.23001
-25.108038 -33.042679 3.8717358 307.23001
-4.9234834 -6.4794025 -2.1303513 307.23001
-25.09807 -33.02956 4.85115 307.23001
-5.5362844 -7.285861 -2.1681793 307.23001
-25.114252 -33.050858 5.833858 307.23001
-6.2611914 -8.2398529 -2.1997056 307.23001
-25.124666 -33.06456 6.82268 307.23001
-7.2095776 -9.4879475 -2.2451544 307.23001
-25.109259 -33.044285 7.8193431 307.23001
-8.5489979 -11.181625 -2.3124871 307.39999
-10.337978 -13.521515 -2.3921072 307.39999
-12.037547 -15.744458 -2.3176711 307.39999
-14.465612 -18.920235 -2.2219751 307.39999
-24.953234 -32.637474 -2.8728507 307.39999
-2.8719835 -3.7563984 -2.105269 307.39999
-24.985798 -32.680065 -1.9183987 307.39999
-3.0578151 -3.9994562 -2.1028676 307.39999
-24.99164 -32.68771 -0.95530987 307.39999
-3.2792096 -4.2890282 -2.1082313 307.39999
-25.015381 -32.718761 0 307.39999
-3.520365 -4.6044464 -2.1095803 307.39999
-25.05479 -32.770306 0.9577238 307.39999
-3.7977359 -4.9672322 -2.1127722 307.39999
-25.052536 -32.767357 1.9235228 307.39999
-4.1108103 -5.3767166 -2.111932 307.39999
-25.058659 -32.775364 2.8849883 307.39999
-4.4944553 -5.8785033 -2.1218565 307.39999
-25.106787 -32.838314 3.8565016 307.39999
-4.9497375 -6.4739881 -2.1333902 307.39999
-25.098232 -32.827126 4.8323336 307.39999
-5.5578775 -7.2694025 -2.1681793 307.39999
-25.103943 -32.834595 5.8088069 307.39999
-6.2903647 -8.2274561 -2.201369 307.39999
-25.120771 -32.856606 6.7951193 307.39999
-7.2388906 -9.4680758 -2.2455246 307.39999
-25.105724 -32.836926 7.7878675 307.39999
-8.5862045 -11.16553 -2.3141081 307.56
-10.393807 -13.516143 -2.3962824 307.56
-12.075413 -15.702909 -2.3165095 307.56
-14.447984 -18.788208 -2.2111995 307.56
-24.950628 -32.445885 -2.8621082 307.56
-2.8813484 -3.7469153 -2.1044555 307.56
-24.980749 -32.485054 -1.9110385 307.56
-3.0689719 -3.9909017 -2.1028676 307.56
-24.982878 -32.48782 -0.95150334 307.56
-3.2889025 -4.2769003 -2.1067765 307.56
-24.999363 -32.509258 0 307.56
-3.5309179 -4.5916181 -2.1082122 307.56
-25.034069 -32.55439 0.953453 307.56
-3.8115921 -4.9566078 -2.1127722 307.56
-25.052603 -32.578491 1.9165354 307.56
-4.1269727 -5.3667297 -2.1125276 307.56
-25.045494 -32.569244 2.8729901 307.56
-4.5202293 -5.8781219 -2.1262665 307.56
-25.097637 -32.637054 3.8410816 307.56
-4.9795914 -6.4754782 -2.1384552 307.56
-25.083242 -32.618336 4.8118911 307.56
-5.5769696 -7.2523108 -2.1677182 307.56
-25.09412 -32.632481 5.7854257 307.56
-6.3133159 -8.2098579 -2.201369 307.56
-25.101746 -32.642399 6.7652893 307.56
-7.2700949 -9.4540567 -2.2470059 307.56
-25.099079 -32.638931 7.7575026 307.56
-8.6388912 -11.157282 -2.3183234 307.75
-10.439784 -13.483168 -2.3965609 307.75
-12.123771 -15.658067 -2.3158126 307.75
-14.483387 -18.705553 -2.2071123 307.75
-24.955484 -32.230453 -2.850389 307.75
-2.8915205 -3.7344506 -2.1028285 307.75
-24.984373 -32.267765 -1.9031193 307.75
-3.0821893 -3.9807026 -2.1028676 307.75
-24.991322 -32.276737 -0.94774318 307.75
-3.3042078 -4.2674437 -2.1075039 307.75
-25.012749 -32.304413 0 307.75
-3.5438237 -4.5769119 -2.1068442 307.75
-25.04763 -32.349464 0.94987857 307.75
-3.8268478 -4.9424424 -2.1121318 307.75
-25.044304 -32.345169 1.9076844 307.75
-4.1447468 -5.3530145 -2.1125276 307.75
-25.058086 -32.362965 2.8621082 307.75
-4.5279269 -5.8478985 -2.1207538 307.75
-25.091127 -32.40564 3.8236179 307.75
-4.9915614 -6.446691 -2.1344032 307.75
-25.093979 -32.409325 4.7933068 307.75
-5.6045628 -7.2383933 -2.1691015 307.75
-25.106407 -32.425373 5.7634363 307.75
-6.351285 -8.2027979 -2.2051115 307.75
-25.115612 -32.437263 6.7399983 307.75
-7.3062186 -9.4361124 -2.248487 307.75
-25.091663 -32.40633 7.7219534 307.75
-8.6607971 -11.125283 -2.3163779 307.89999
-10.482347 -13.465167 -2.3982308 307.89999
-12.169602 -15.632543 -2.3167419 307.89999
-14.471146 -18.589005 -2.1978233 307.89999
-17.299028 -22.221581 -1.9692253 307.89999
-2.9035323 -3.7297513 -2.1044555 307.89999
-23.728621 -30.480755 -1.8013811 307.89999
-3.0982685 -3.9799011 -2.1067219 307.89999
-23.760292 -30.521439 -0.89802563 307.89999
-3.3142242 -4.2573085 -2.1067765 307.89999
-23.790037 -30.559649 0 307.89999
-3.5627208 -4.5765162 -2.1109483 307.89999
-25.026606 -32.14809 0.94588631 307.89999
-3.8409379 -4.9339023 -2.1127722 307.89999
-25.02581 -32.147068 1.8998585 307.89999
-4.1575737 -5.3406386 -2.111932 307.89999
-25.034876 -32.158714 2.8498309 307.89999
-4.543221 -5.8360243 -2.1207538 307.89999
-25.082912 -32.220417 3.8094983 307.89999
-5.0119872 -6.4381809 -2.1359227 307.89999
-25.077459 -32.213413 4.7740259 307.89999
-5.6234937 -7.2236958 -2.1691015 307.89999
-25.089014 -32.22826 5.7400556 307.89999
-6.3727379 -8.1861429 -2.2051115 307.89999
